7.265330	-3.660810	1.476320
7.264290	-3.660300	1.477400
7.263380	-3.659840	1.478510
7.262340	-3.659320	1.479580
7.261500	-3.658900	1.480700
7.260780	-3.658540	1.481840
7.260510	-3.658410	1.483080
7.259860	-3.658090	1.484230
7.259130	-3.657730	1.485370
7.258360	-3.657340	1.486500
7.257770	-3.657040	1.487670
7.257170	-3.656750	1.488830
7.257030	-3.656680	1.490090
7.256510	-3.656420	1.491270
7.256040	-3.656190	1.492470
7.255650	-3.656000	1.493670
7.254920	-3.655640	1.494810
7.254780	-3.655570	1.496070
7.254770	-3.655560	1.497360
7.254300	-3.655340	1.498550
7.253970	-3.655170	1.499770
7.253950	-3.655170	1.501050
7.253620	-3.655000	1.502270
7.253150	-3.654770	1.503470
7.253400	-3.654900	1.504810
7.253450	-3.654930	1.506100
7.253240	-3.654830	1.507350
7.253290	-3.654850	1.508650
7.252880	-3.654650	1.509850
7.252810	-3.654620	1.511130
7.252990	-3.654710	1.512450
7.253290	-3.654870	1.513800
7.253460	-3.654960	1.515130
7.253310	-3.654890	1.516390
7.253430	-3.654950	1.517700
7.253800	-3.655140	1.519070
7.254040	-3.655270	1.520410
7.254140	-3.655330	1.521720
7.254320	-3.655420	1.523050
7.254940	-3.655740	1.524470
7.255570	-3.656050	1.525890
7.255680	-3.656120	1.527200
7.256110	-3.656340	1.528580
7.256990	-3.656780	1.530060
7.256970	-3.656780	1.531350
7.257530	-3.657060	1.532760
7.258730	-3.657670	1.534300
7.259280	-3.657960	1.535710
7.259710	-3.658180	1.537090
7.260790	-3.658720	1.538610
7.261860	-3.659260	1.540130
7.262730	-3.659710	1.541610
7.263870	-3.660290	1.543140
7.264870	-3.660790	1.544650
7.265560	-3.661150	1.546090
7.264070	-3.660400	1.547060
7.306080	-3.682770	1.463990
7.292190	-3.675770	1.462500
7.285890	-3.672600	1.462530
7.282730	-3.671010	1.463190
7.280540	-3.669910	1.464040
7.278730	-3.669000	1.464970
7.276990	-3.668130	1.465910
7.274850	-3.667050	1.466770
7.273050	-3.666150	1.467690
7.272010	-3.665630	1.468770
7.270780	-3.665010	1.469810
7.269220	-3.664230	1.470790
7.268250	-3.663750	1.471880
7.267530	-3.663390	1.473020
7.265920	-3.662580	1.473990
7.265200	-3.662220	1.475130
7.264290	-3.661770	1.476230
7.263380	-3.661310	1.477340
7.262660	-3.660950	1.478480
7.261750	-3.660500	1.479580
7.260650	-3.659950	1.480650
7.260060	-3.659650	1.481820
7.259660	-3.659460	1.483020
7.259010	-3.659130	1.484180
7.258480	-3.658870	1.485360
7.258020	-3.658640	1.486550
7.257240	-3.658250	1.487680
7.256640	-3.657960	1.488850
7.256120	-3.657700	1.490030
7.255780	-3.657530	1.491250
7.255580	-3.657430	1.492490
7.254790	-3.657040	1.493620
7.254460	-3.656880	1.494840
7.254190	-3.656740	1.496070
7.253860	-3.656580	1.497290
7.253580	-3.656440	1.498520
7.253370	-3.656340	1.499770
7.253430	-3.656380	1.501070
7.253030	-3.656180	1.502270
7.252500	-3.655910	1.503450
7.252420	-3.655880	1.504730
7.252600	-3.655970	1.506050
7.252710	-3.656030	1.507360
7.252500	-3.655930	1.508610
7.252420	-3.655900	1.509880
7.252220	-3.655800	1.511130
7.252390	-3.655890	1.512450
7.252380	-3.655880	1.513740
7.252100	-3.655750	1.514970
7.252790	-3.656100	1.516400
7.252840	-3.656130	1.517700
7.252500	-3.655960	1.518920
7.252670	-3.656050	1.520250
7.253170	-3.656310	1.521640
7.253670	-3.656560	1.523030
7.253970	-3.656720	1.524390
7.254270	-3.656880	1.525740
7.254640	-3.657070	1.527110
7.255190	-3.657350	1.528520
7.255760	-3.657640	1.529920
7.256320	-3.657920	1.531330
7.257190	-3.658370	1.532810
7.257750	-3.658650	1.534220
7.258240	-3.658910	1.535610
7.258740	-3.659160	1.537010
7.259680	-3.659640	1.538500
7.261010	-3.660310	1.540070
7.261890	-3.660760	1.541550
7.262890	-3.661270	1.543060
7.264020	-3.661840	1.544590
7.264970	-3.662320	1.546090
7.264430	-3.662060	1.547260
7.301550	-3.681860	1.463200
7.290160	-3.676120	1.462210
7.284630	-3.673330	1.462390
7.281670	-3.671840	1.463090
7.279350	-3.670680	1.463910
7.277730	-3.669870	1.464880
7.275790	-3.668890	1.465770
7.274240	-3.668110	1.466750
7.272950	-3.667470	1.467780
7.271460	-3.666720	1.468770
7.269970	-3.665970	1.469760
7.268540	-3.665260	1.470760
7.267380	-3.664680	1.471820
7.266470	-3.664220	1.472920
7.265620	-3.663800	1.474040
7.264520	-3.663250	1.475100
7.263620	-3.662790	1.476210
7.262830	-3.662400	1.477340
7.261540	-3.661750	1.478360
7.261010	-3.661490	1.479540
7.260610	-3.661290	1.480750
7.259260	-3.660620	1.481760
7.258340	-3.660160	1.482870
7.258270	-3.660120	1.484140
7.257480	-3.659730	1.485270
7.257090	-3.659540	1.486470
7.256690	-3.659340	1.487680
7.255970	-3.658980	1.488820
7.255190	-3.658590	1.489950
7.254730	-3.658360	1.491140
7.254390	-3.658200	1.492360
7.254180	-3.658100	1.493610
7.254040	-3.658030	1.494870
7.253710	-3.657860	1.496090
7.252730	-3.657370	1.497170
7.252390	-3.657210	1.498390
7.252510	-3.657270	1.499700
7.252360	-3.657200	1.500960
7.252350	-3.657200	1.502250
7.252470	-3.657260	1.503560
7.251930	-3.657000	1.504740
7.251600	-3.656830	1.505960
7.251770	-3.656920	1.507280
7.251700	-3.656890	1.508550
7.251550	-3.656820	1.509810
7.251530	-3.656820	1.511100
7.251460	-3.656780	1.512370
7.251500	-3.656810	1.513670
7.251940	-3.657030	1.515050
7.251790	-3.656960	1.516310
7.251770	-3.656960	1.517590
7.252020	-3.657080	1.518930
7.252510	-3.657340	1.520330
7.252690	-3.657430	1.521650
7.252930	-3.657550	1.522990
7.253100	-3.657650	1.524320
7.253660	-3.657930	1.525730
7.254480	-3.658350	1.527190
7.254970	-3.658600	1.528580
7.254950	-3.658600	1.529870
7.255640	-3.658940	1.531310
7.256330	-3.659300	1.532740
7.256880	-3.659580	1.534150
7.257760	-3.660030	1.535630
7.258760	-3.660540	1.537130
7.259390	-3.660850	1.538550
7.260330	-3.661340	1.540050
7.261210	-3.661780	1.541520
7.262270	-3.662320	1.543040
7.263540	-3.662970	1.544610
7.264480	-3.663440	1.546100
7.263430	-3.662920	1.547170
7.300160	-3.682530	1.463030
7.289810	-3.677310	1.462250
7.283950	-3.674360	1.462360
7.280670	-3.672710	1.463000
7.278730	-3.671730	1.463900
7.277180	-3.670950	1.464880
7.275180	-3.669950	1.465760
7.273370	-3.669040	1.466690
7.271820	-3.668260	1.467670
7.270330	-3.667520	1.468660
7.269100	-3.666900	1.469700
7.267810	-3.666250	1.470720
7.266450	-3.665570	1.471740
7.265600	-3.665150	1.472860
7.264500	-3.664600	1.473920
7.263780	-3.664240	1.475060
7.263130	-3.663910	1.476220
7.262350	-3.663520	1.477350
7.261180	-3.662930	1.478400
7.259950	-3.662320	1.479440
7.259360	-3.662030	1.480610
7.259030	-3.661860	1.481830
7.258240	-3.661470	1.482960
7.257530	-3.661110	1.484100
7.256870	-3.660790	1.485250
7.256030	-3.660360	1.486370
7.255500	-3.660100	1.487550
7.255350	-3.660030	1.488810
7.254580	-3.659640	1.489940
7.254180	-3.659450	1.491140
7.254100	-3.659410	1.492410
7.253440	-3.659080	1.493570
7.252910	-3.658820	1.494750
7.252780	-3.658760	1.496010
7.252310	-3.658530	1.497200
7.252110	-3.658430	1.498450
7.251830	-3.658290	1.499680
7.251560	-3.658160	1.500910
7.251610	-3.658190	1.502210
7.251210	-3.657990	1.503410
7.250880	-3.657830	1.504630
7.251120	-3.657950	1.505970
7.251160	-3.657980	1.507270
7.251020	-3.657910	1.508530
7.250940	-3.657870	1.509800
7.250930	-3.657870	1.511090
7.251300	-3.658060	1.512450
7.251150	-3.657990	1.513710
7.251130	-3.657990	1.515000
7.250990	-3.657920	1.516250
7.251300	-3.658080	1.517610
7.251660	-3.658260	1.518970
7.251710	-3.658290	1.520270
7.251820	-3.658350	1.521590
7.252250	-3.658570	1.522970
7.252300	-3.658600	1.524270
7.252790	-3.658850	1.525660
7.253410	-3.659170	1.527080
7.253840	-3.659390	1.528460
7.254410	-3.659680	1.529870
7.254640	-3.659800	1.531210
7.255520	-3.660250	1.532690
7.256530	-3.660760	1.534190
7.256950	-3.660980	1.535570
7.257710	-3.661370	1.537020
7.258460	-3.661750	1.538470
7.259460	-3.662260	1.539980
7.260850	-3.662960	1.541570
7.261920	-3.663510	1.543080
7.262480	-3.663790	1.544500
7.263160	-3.664140	1.545930
7.263020	-3.664070	1.547200
7.300060	-3.683850	1.463120
7.289060	-3.678300	1.462210
7.283460	-3.675480	1.462380
7.279920	-3.673700	1.462960
7.278440	-3.672960	1.463950
7.276820	-3.672140	1.464910
7.274760	-3.671110	1.465790
7.273200	-3.670320	1.466770
7.271780	-3.669610	1.467770
7.270360	-3.668900	1.468770
7.268670	-3.668050	1.469720
7.267000	-3.667210	1.470670
7.265960	-3.666690	1.471750
7.265250	-3.666330	1.472890
7.263880	-3.665650	1.473910
7.262920	-3.665170	1.475000
7.262130	-3.664770	1.476130
7.261540	-3.664480	1.477300
7.260700	-3.664060	1.478420
7.259970	-3.663700	1.479560
7.259260	-3.663340	1.480700
7.258280	-3.662850	1.481790
7.257440	-3.662430	1.482900
7.256650	-3.662040	1.484030
7.256000	-3.661710	1.485190
7.255480	-3.661450	1.486370
7.254890	-3.661160	1.487540
7.254490	-3.660960	1.488740
7.254210	-3.660830	1.489970
7.253820	-3.660630	1.491180
7.253550	-3.660500	1.492410
7.252890	-3.660170	1.493570
7.252300	-3.659880	1.494730
7.252230	-3.659840	1.496010
7.251830	-3.659650	1.497210
7.251370	-3.659420	1.498410
7.250900	-3.659180	1.499600
7.251210	-3.659340	1.500950
7.251120	-3.659310	1.502220
7.250850	-3.659170	1.503450
7.250710	-3.659100	1.504710
7.250310	-3.658910	1.505920
7.250420	-3.658970	1.507230
7.250470	-3.659000	1.508530
7.250450	-3.658990	1.509810
7.250050	-3.658790	1.511020
7.250110	-3.658830	1.512320
7.250350	-3.658950	1.513660
7.250590	-3.659070	1.515000
7.250630	-3.659100	1.516290
7.250610	-3.659100	1.517580
7.250850	-3.659220	1.518920
7.250900	-3.659250	1.520220
7.251010	-3.659310	1.521530
7.251500	-3.659560	1.522930
7.251870	-3.659750	1.524290
7.252050	-3.659840	1.525620
7.252480	-3.660070	1.527000
7.253490	-3.660580	1.528500
7.253860	-3.660770	1.529870
7.254150	-3.660920	1.531220
7.254910	-3.661310	1.532670
7.255920	-3.661820	1.534180
7.256730	-3.662230	1.535640
7.257160	-3.662450	1.537020
7.257970	-3.662870	1.538490
7.258850	-3.663320	1.539970
7.259720	-3.663760	1.541440
7.260980	-3.664400	1.543000
7.262060	-3.664950	1.544520
7.262680	-3.665270	1.545950
7.262470	-3.665160	1.547200
7.258730	-3.663280	1.547690
7.297920	-3.684090	1.462800
7.287180	-3.678670	1.461940
7.282160	-3.676140	1.462220
7.279390	-3.674750	1.462960
7.277330	-3.673710	1.463830
7.275770	-3.672930	1.464810
7.274100	-3.672090	1.465760
7.272670	-3.671370	1.466770
7.271190	-3.670620	1.467760
7.269760	-3.669910	1.468760
7.268340	-3.669200	1.469760
7.266660	-3.668350	1.470710
7.265690	-3.667870	1.471800
7.264720	-3.667380	1.472890
7.263290	-3.666660	1.473900
7.262570	-3.666300	1.475040
7.261860	-3.665950	1.476180
7.261150	-3.665590	1.477330
7.260040	-3.665040	1.478390
7.259190	-3.664610	1.479500
7.258410	-3.664220	1.480630
7.257760	-3.663900	1.481790
7.257100	-3.663570	1.482940
7.256200	-3.663120	1.484050
7.255610	-3.662820	1.485210
7.255140	-3.662590	1.486410
7.254750	-3.662400	1.487620
7.254350	-3.662200	1.488820
7.253760	-3.661900	1.489990
7.253160	-3.661610	1.491160
7.252830	-3.661440	1.492370
7.252370	-3.661210	1.493570
7.251970	-3.661020	1.494770
7.251820	-3.660950	1.496030
7.251550	-3.660820	1.497260
7.251150	-3.660620	1.498470
7.250830	-3.660460	1.499690
7.250490	-3.660290	1.500910
7.250150	-3.660120	1.502130
7.250270	-3.660190	1.503440
7.250310	-3.660210	1.504740
7.249910	-3.660010	1.505940
7.249900	-3.660010	1.507230
7.249880	-3.660010	1.508510
7.249930	-3.660040	1.509810
7.249720	-3.659930	1.511060
7.249770	-3.659970	1.512360
7.249880	-3.660020	1.513670
7.250250	-3.660210	1.515040
7.250430	-3.660310	1.516360
7.250470	-3.660330	1.517660
7.250400	-3.660300	1.518930
7.250630	-3.660420	1.520270
7.251000	-3.660610	1.521640
7.251050	-3.660640	1.522940
7.251420	-3.660830	1.524310
7.252040	-3.661150	1.525730
7.252470	-3.661370	1.527110
7.252830	-3.661560	1.528470
7.253520	-3.661910	1.529910
7.254140	-3.662230	1.531330
7.254510	-3.662420	1.532700
7.255390	-3.662860	1.534180
7.256130	-3.663240	1.535630
7.256570	-3.663470	1.537010
7.257830	-3.664110	1.538570
7.258580	-3.664490	1.540020
7.259330	-3.664870	1.541470
7.260400	-3.665410	1.542990
7.261730	-3.666090	1.544570
7.262350	-3.666410	1.545990
7.262060	-3.666270	1.547220
7.257880	-3.664160	1.547620
7.296080	-3.684530	1.462540
7.286760	-3.679830	1.461960
7.281870	-3.677360	1.462270
7.278970	-3.675900	1.462980
7.276900	-3.674860	1.463860
7.274910	-3.673860	1.464750
7.273610	-3.673200	1.465770
7.272450	-3.672620	1.466830
7.270320	-3.671550	1.467690
7.268770	-3.670770	1.468670
7.267480	-3.670120	1.469700
7.266240	-3.669510	1.470740
7.265270	-3.669020	1.471830
7.264290	-3.668530	1.472920
7.263060	-3.667910	1.473960
7.262160	-3.667460	1.475060
7.261310	-3.667030	1.476180
7.260270	-3.666510	1.477260
7.259550	-3.666150	1.478400
7.258580	-3.665670	1.479490
7.257740	-3.665240	1.480610
7.257010	-3.664880	1.481750
7.256490	-3.664620	1.482930
7.255710	-3.664230	1.484060
7.254990	-3.663870	1.485200
7.254660	-3.663710	1.486420
7.254260	-3.663510	1.487630
7.253610	-3.663190	1.488780
7.253080	-3.662920	1.489960
7.252930	-3.662850	1.491220
7.252280	-3.662530	1.492370
7.251760	-3.662270	1.493550
7.251940	-3.662360	1.494880
7.251470	-3.662130	1.496070
7.250870	-3.661830	1.497240
7.250610	-3.661700	1.498470
7.250460	-3.661630	1.499730
7.250070	-3.661440	1.500940
7.249860	-3.661340	1.502180
7.249660	-3.661240	1.503430
7.249570	-3.661200	1.504700
7.249560	-3.661200	1.505980
7.249670	-3.661260	1.507300
7.249470	-3.661160	1.508540
7.249260	-3.661060	1.509790
7.249240	-3.661050	1.511070
7.249290	-3.661080	1.512370
7.249270	-3.661080	1.513660
7.249640	-3.661270	1.515020
7.249690	-3.661300	1.516320
7.249600	-3.661260	1.517590
7.249660	-3.661290	1.518890
7.250020	-3.661470	1.520260
7.250390	-3.661660	1.521630
7.250890	-3.661920	1.523020
7.251180	-3.662070	1.524370
7.251680	-3.662330	1.525770
7.251920	-3.662460	1.527110
7.252280	-3.662640	1.528470
7.252780	-3.662900	1.529870
7.253470	-3.663250	1.531310
7.254340	-3.663690	1.532780
7.254960	-3.664010	1.534200
7.255650	-3.664360	1.535640
7.256400	-3.664740	1.537090
7.257210	-3.665160	1.538550
7.257830	-3.665480	1.539980
7.258720	-3.665930	1.541460
7.259910	-3.666530	1.543000
7.261550	-3.667370	1.544650
7.262240	-3.667720	1.546090
7.261580	-3.667390	1.547240
7.257200	-3.665180	1.547600
7.297970	-3.687020	1.463040
7.286280	-3.681110	1.461990
7.280860	-3.678380	1.462200
7.278290	-3.677090	1.462970
7.276550	-3.676210	1.463910
7.274610	-3.675230	1.464810
7.273130	-3.674490	1.465800
7.271320	-3.673580	1.466730
7.269640	-3.672730	1.467680
7.268730	-3.672280	1.468790
7.267180	-3.671500	1.469760
7.265750	-3.670780	1.470760
7.264720	-3.670260	1.471840
7.263620	-3.669710	1.472910
7.262580	-3.669190	1.473990
7.261480	-3.668640	1.475050
7.260500	-3.668150	1.476140
7.259720	-3.667760	1.477270
7.258680	-3.667240	1.478350
7.257840	-3.666820	1.479470
7.257440	-3.666620	1.480670
7.256730	-3.666260	1.481820
7.256130	-3.665970	1.482980
7.255290	-3.665550	1.484100
7.254570	-3.665180	1.485240
7.254050	-3.664920	1.486420
7.253390	-3.664600	1.487580
7.252800	-3.664300	1.488740
7.252270	-3.664040	1.489920
7.252000	-3.663910	1.491160
7.251860	-3.663840	1.492410
7.251460	-3.663640	1.493620
7.251130	-3.663480	1.494840
7.250600	-3.663220	1.496020
7.250200	-3.663020	1.497220
7.249990	-3.662920	1.498470
7.249730	-3.662790	1.499700
7.249390	-3.662620	1.500920
7.249250	-3.662550	1.502180
7.249360	-3.662610	1.503490
7.249150	-3.662510	1.504740
7.248880	-3.662380	1.505970
7.248740	-3.662310	1.507230
7.248590	-3.662240	1.508490
7.248450	-3.662170	1.509750
7.248500	-3.662200	1.511050
7.248480	-3.662200	1.512330
7.248660	-3.662290	1.513660
7.248710	-3.662320	1.514960
7.248820	-3.662380	1.516270
7.249060	-3.662500	1.517610
7.249490	-3.662730	1.518990
7.249600	-3.662780	1.520300
7.249970	-3.662970	1.521670
7.250010	-3.663000	1.522970
7.250510	-3.663260	1.524360
7.251260	-3.663640	1.525810
7.251370	-3.663700	1.527120
7.251670	-3.663850	1.528470
7.252420	-3.664240	1.529920
7.252790	-3.664430	1.531290
7.253220	-3.664650	1.532670
7.254350	-3.665230	1.534200
7.255100	-3.665610	1.535650
7.255530	-3.665830	1.537040
7.256220	-3.666180	1.538470
7.257540	-3.666860	1.540050
7.258550	-3.667370	1.541550
7.259750	-3.667980	1.543100
7.260690	-3.668450	1.544590
7.261440	-3.668840	1.546040
7.260970	-3.668610	1.547240
7.255500	-3.665840	1.547360
7.298200	-3.688630	1.463210
7.286250	-3.682590	1.462100
7.280910	-3.679900	1.462330
7.278020	-3.678440	1.463030
7.275880	-3.677370	1.463900
7.273690	-3.676260	1.464750
7.271880	-3.675350	1.465670
7.270650	-3.674740	1.466710
7.269290	-3.674050	1.467730
7.267680	-3.673240	1.468690
7.266200	-3.672500	1.469680
7.265090	-3.671940	1.470750
7.263930	-3.671360	1.471800
7.262890	-3.670840	1.472880
7.262040	-3.670410	1.474000
7.261070	-3.669920	1.475090
7.259900	-3.669340	1.476140
7.259250	-3.669010	1.477300
7.258470	-3.668620	1.478430
7.257560	-3.668170	1.479530
7.256720	-3.667740	1.480650
7.255800	-3.667280	1.481750
7.255280	-3.667030	1.482930
7.254880	-3.666830	1.484140
7.254040	-3.666400	1.485250
7.253570	-3.666170	1.486450
7.252920	-3.665850	1.487600
7.252200	-3.665490	1.488740
7.251800	-3.665290	1.489950
7.251540	-3.665160	1.491180
7.251330	-3.665060	1.492430
7.250860	-3.664830	1.493620
7.250400	-3.664600	1.494810
7.250260	-3.664530	1.496070
7.249730	-3.664270	1.497250
7.249530	-3.664170	1.498500
7.249190	-3.664000	1.499720
7.248790	-3.663800	1.500920
7.248580	-3.663700	1.502170
7.248510	-3.663670	1.503440
7.248170	-3.663500	1.504660
7.248090	-3.663470	1.505930
7.248330	-3.663590	1.507270
7.248180	-3.663520	1.508530
7.248170	-3.663520	1.509810
7.248150	-3.663510	1.511100
7.248200	-3.663540	1.512400
7.248380	-3.663630	1.513720
7.248430	-3.663670	1.515020
7.248480	-3.663690	1.516320
7.248720	-3.663820	1.517660
7.248820	-3.663870	1.518970
7.249130	-3.664030	1.520330
7.249310	-3.664130	1.521650
7.249540	-3.664250	1.522990
7.249840	-3.664410	1.524350
7.250280	-3.664630	1.525730
7.251030	-3.665010	1.527180
7.251530	-3.665270	1.528570
7.251820	-3.665420	1.529920
7.252310	-3.665680	1.531320
7.252620	-3.665830	1.532670
7.253440	-3.666250	1.534140
7.254500	-3.666790	1.535650
7.255000	-3.667050	1.537050
7.255550	-3.667330	1.538460
7.257010	-3.668070	1.540060
7.258340	-3.668750	1.541630
7.259410	-3.669290	1.543150
7.260410	-3.669800	1.544660
7.260840	-3.670020	1.546040
7.260240	-3.669720	1.547210
7.299400	-3.690710	1.463570
7.287200	-3.684540	1.462410
7.281350	-3.681590	1.462530
7.277740	-3.679770	1.463100
7.275480	-3.678630	1.463940
7.273420	-3.677590	1.464810
7.271680	-3.676720	1.465750
7.270260	-3.676000	1.466750
7.268830	-3.675280	1.467760
7.267540	-3.674640	1.468790
7.265990	-3.673850	1.469760
7.264250	-3.672980	1.470700
7.263210	-3.672460	1.471780
7.262560	-3.672130	1.472930
7.261520	-3.671610	1.474010
7.260550	-3.671120	1.475100
7.259570	-3.670630	1.476190
7.258790	-3.670240	1.477330
7.257820	-3.669750	1.478420
7.257030	-3.669360	1.479540
7.256060	-3.668870	1.480630
7.255470	-3.668580	1.481800
7.254950	-3.668320	1.482980
7.253910	-3.667800	1.484060
7.253320	-3.667500	1.485230
7.253110	-3.667400	1.486470
7.252780	-3.667240	1.487690
7.252190	-3.666950	1.488860
7.251470	-3.666580	1.490000
7.250950	-3.666320	1.491180
7.250480	-3.666090	1.492370
7.250210	-3.665960	1.493610
7.250200	-3.665960	1.494890
7.249410	-3.665560	1.496020
7.249070	-3.665400	1.497240
7.248940	-3.665330	1.498500
7.248660	-3.665200	1.499730
7.248330	-3.665030	1.500950
7.248440	-3.665090	1.502260
7.248170	-3.664960	1.503490
7.247900	-3.664830	1.504730
7.247760	-3.664760	1.505980
7.247740	-3.664760	1.507270
7.247400	-3.664590	1.508490
7.247650	-3.664720	1.509830
7.248080	-3.664940	1.511210
7.247870	-3.664840	1.512450
7.247860	-3.664830	1.513740
7.247840	-3.664830	1.515020
7.247630	-3.664730	1.516270
7.247800	-3.664820	1.517590
7.248500	-3.665170	1.519030
7.248930	-3.665390	1.520410
7.248910	-3.665390	1.521690
7.249210	-3.665540	1.523050
7.249580	-3.665730	1.524410
7.250070	-3.665990	1.525810
7.250310	-3.666120	1.527150
7.250940	-3.666430	1.528570
7.251430	-3.666690	1.529960
7.252050	-3.667000	1.531390
7.252610	-3.667290	1.532800
7.253040	-3.667510	1.534180
7.253720	-3.667860	1.535610
7.254920	-3.668470	1.537160
7.255410	-3.668720	1.538550
7.256360	-3.669210	1.540050
7.257870	-3.669980	1.541660
7.259010	-3.670560	1.543200
7.260270	-3.671200	1.544760
7.261340	-3.671740	1.546280
7.260930	-3.671540	1.547480
7.299070	-3.692020	1.463620
7.286730	-3.685780	1.462440
7.281200	-3.682990	1.462620
7.277590	-3.681170	1.463190
7.274630	-3.679680	1.463880
7.272820	-3.678770	1.464810
7.271470	-3.678090	1.465830
7.269600	-3.677140	1.466740
7.268050	-3.676360	1.467720
7.267070	-3.675870	1.468810
7.265460	-3.675060	1.469770
7.264360	-3.674510	1.470840
7.263320	-3.673990	1.471920
7.262480	-3.673560	1.473040
7.261180	-3.672910	1.474060
7.260010	-3.672330	1.475120
7.259110	-3.671870	1.476220
7.258200	-3.671420	1.477330
7.257290	-3.670960	1.478430
7.256380	-3.670500	1.479530
7.255540	-3.670080	1.480650
7.254940	-3.669790	1.481820
7.254550	-3.669590	1.483020
7.253960	-3.669290	1.484190
7.252920	-3.668770	1.485270
7.252580	-3.668610	1.486490
7.252180	-3.668410	1.487690
7.251660	-3.668150	1.488870
7.251130	-3.667880	1.490050
7.250610	-3.667620	1.491230
7.250080	-3.667360	1.492410
7.249750	-3.667200	1.493630
7.249470	-3.667060	1.494870
7.248880	-3.666770	1.496030
7.248940	-3.666800	1.497330
7.248860	-3.666760	1.498600
7.248330	-3.666500	1.499780
7.247740	-3.666200	1.500950
7.247730	-3.666200	1.502230
7.247770	-3.666230	1.503530
7.247570	-3.666130	1.504780
7.247300	-3.666000	1.506010
7.247400	-3.666060	1.507320
7.247390	-3.666050	1.508610
7.247250	-3.665990	1.509870
7.247170	-3.665950	1.511140
7.247150	-3.665940	1.512420
7.247270	-3.666010	1.513740
7.247510	-3.666130	1.515080
7.247420	-3.666090	1.516350
7.247790	-3.666280	1.517710
7.247970	-3.666370	1.519040
7.248080	-3.666440	1.520350
7.248320	-3.666560	1.521690
7.248750	-3.666780	1.523070
7.248990	-3.666910	1.524410
7.249550	-3.667190	1.525820
7.250040	-3.667450	1.527220
7.250540	-3.667700	1.528610
7.251030	-3.667960	1.530010
7.251330	-3.668110	1.531360
7.252020	-3.668460	1.532800
7.252760	-3.668840	1.534240
7.253450	-3.669200	1.535680
7.254270	-3.669610	1.537150
7.255140	-3.670060	1.538620
7.256210	-3.670600	1.540140
7.257090	-3.671050	1.541620
7.258090	-3.671560	1.543130
7.259540	-3.672300	1.544730
7.260430	-3.672750	1.546210
7.259830	-3.672450	1.547370
7.300220	-3.694200	1.463980
7.288020	-3.688030	1.462830
7.281850	-3.684910	1.462880
7.277790	-3.682860	1.463360
7.275150	-3.681530	1.464120
7.273280	-3.680580	1.465030
7.271280	-3.679570	1.465920
7.269990	-3.678930	1.466950
7.268370	-3.678110	1.467910
7.266430	-3.677130	1.468810
7.265330	-3.676580	1.469880
7.263980	-3.675900	1.470890
7.263200	-3.675510	1.472020
7.262030	-3.674920	1.473080
7.260610	-3.674210	1.474080
7.259820	-3.673810	1.475210
7.258920	-3.673360	1.476310
7.258130	-3.672970	1.477440
7.257040	-3.672410	1.478510
7.256450	-3.672120	1.479670
7.255540	-3.671660	1.480780
7.254620	-3.671210	1.481880
7.253970	-3.670880	1.483040
7.253510	-3.670650	1.484230
7.252730	-3.670260	1.485360
7.252330	-3.670060	1.486560
7.252000	-3.669900	1.487790
7.251220	-3.669510	1.488910
7.250690	-3.669240	1.490090
7.250170	-3.668980	1.491270
7.249890	-3.668850	1.492510
7.249490	-3.668650	1.493710
7.248840	-3.668320	1.494870
7.248760	-3.668290	1.496140
7.248300	-3.668060	1.497330
7.248030	-3.667920	1.498560
7.247760	-3.667790	1.499800
7.247360	-3.667590	1.501000
7.247340	-3.667590	1.502290
7.247330	-3.667590	1.503570
7.247120	-3.667480	1.504820
7.246910	-3.667380	1.506060
7.246770	-3.667310	1.507320
7.246880	-3.667380	1.508640
7.246800	-3.667340	1.509910
7.246660	-3.667270	1.511170
7.246960	-3.667430	1.512520
7.247080	-3.667490	1.513830
7.246990	-3.667450	1.515100
7.247170	-3.667540	1.516430
7.247340	-3.667640	1.517760
7.247330	-3.667630	1.519040
7.247700	-3.667820	1.520410
7.247800	-3.667880	1.521720
7.248050	-3.668010	1.523060
7.248540	-3.668260	1.524450
7.249030	-3.668510	1.525850
7.249280	-3.668640	1.527190
7.250080	-3.669060	1.528650
7.250710	-3.669370	1.530070
7.251070	-3.669560	1.531440
7.251890	-3.669980	1.532900
7.252510	-3.670300	1.534330
7.253130	-3.670620	1.535750
7.253950	-3.671030	1.537210
7.254700	-3.671420	1.538660
7.255570	-3.671860	1.540140
7.256580	-3.672380	1.541650
7.257650	-3.672920	1.543170
7.258520	-3.673370	1.544650
7.259460	-3.673850	1.546140
7.259190	-3.673710	1.547370
7.299660	-3.695310	1.463980
7.288160	-3.689490	1.462970
7.281600	-3.686180	1.462940
7.277680	-3.684190	1.463450
7.275300	-3.682990	1.464260
7.272910	-3.681790	1.465070
7.270910	-3.680780	1.465960
7.269170	-3.679900	1.466900
7.267880	-3.679250	1.467920
7.266650	-3.678630	1.468970
7.264650	-3.677630	1.469850
7.263540	-3.677070	1.470920
7.262640	-3.676620	1.472020
7.261350	-3.675970	1.473050
7.260050	-3.675310	1.474080
7.259330	-3.674950	1.475220
7.258490	-3.674530	1.476340
7.257380	-3.673970	1.477400
7.256610	-3.673590	1.478530
7.255890	-3.673220	1.479670
7.255230	-3.672900	1.480830
7.254780	-3.672670	1.482030
7.253740	-3.672150	1.483100
7.252950	-3.671760	1.484230
7.252170	-3.671360	1.485360
7.251520	-3.671040	1.486510
7.251250	-3.670910	1.487750
7.250660	-3.670610	1.488910
7.250200	-3.670380	1.490110
7.249860	-3.670210	1.491330
7.249460	-3.670020	1.492530
7.248810	-3.669690	1.493690
7.248410	-3.669490	1.494890
7.248070	-3.669320	1.496110
7.247870	-3.669220	1.497360
7.247730	-3.669160	1.498620
7.247390	-3.668990	1.499840
7.247250	-3.668920	1.501090
7.247170	-3.668890	1.502370
7.247030	-3.668820	1.503630
7.246700	-3.668650	1.504850
7.246490	-3.668550	1.506090
7.246340	-3.668480	1.507350
7.246330	-3.668480	1.508640
7.246820	-3.668730	1.510030
7.246680	-3.668670	1.511290
7.246340	-3.668500	1.512510
7.246520	-3.668590	1.513830
7.246700	-3.668690	1.515160
7.247060	-3.668870	1.516520
7.247370	-3.669030	1.517880
7.247090	-3.668900	1.519110
7.247260	-3.668990	1.520430
7.247630	-3.669180	1.521800
7.247870	-3.669300	1.523140
7.248180	-3.669460	1.524500
7.248410	-3.669590	1.525840
7.248970	-3.669880	1.527240
7.249530	-3.670160	1.528650
7.250090	-3.670450	1.530060
7.250780	-3.670800	1.531500
7.251210	-3.671020	1.532880
7.251950	-3.671400	1.534330
7.252710	-3.671790	1.535780
7.253460	-3.672170	1.537230
7.254720	-3.672810	1.538790
7.255720	-3.673330	1.540290
7.256530	-3.673740	1.541760
7.257670	-3.674320	1.543290
7.258860	-3.674930	1.544840
7.258910	-3.674950	1.546140
7.257030	-3.674010	1.547030
7.300890	-3.697340	1.464340
7.289520	-3.691590	1.463350
7.282250	-3.687910	1.463190
7.277430	-3.685480	1.463510
7.274860	-3.684180	1.464280
7.272670	-3.683070	1.465130
7.270800	-3.682130	1.466050
7.268990	-3.681210	1.466970
7.267500	-3.680470	1.467960
7.266080	-3.679750	1.468970
7.264600	-3.679000	1.469960
7.263170	-3.678280	1.470960
7.261940	-3.677670	1.472000
7.261040	-3.677210	1.473100
7.260390	-3.676890	1.474260
7.259160	-3.676270	1.475300
7.258120	-3.675750	1.476380
7.257080	-3.675220	1.477460
7.256100	-3.674730	1.478550
7.255190	-3.674270	1.479650
7.254920	-3.674140	1.480880
7.254530	-3.673950	1.482090
7.253170	-3.673260	1.483100
7.252640	-3.673000	1.484280
7.252320	-3.672840	1.485500
7.251650	-3.672510	1.486660
7.250880	-3.672120	1.487790
7.250600	-3.671980	1.489020
7.249760	-3.671560	1.490130
7.249240	-3.671300	1.491310
7.248840	-3.671100	1.492520
7.248630	-3.671000	1.493770
7.248490	-3.670930	1.495020
7.248090	-3.670730	1.496230
7.247820	-3.670600	1.497460
7.247360	-3.670370	1.498660
7.247150	-3.670270	1.499900
7.246870	-3.670130	1.501130
7.246610	-3.670000	1.502370
7.246720	-3.670060	1.503680
7.246450	-3.669930	1.504910
7.246240	-3.669830	1.506160
7.246030	-3.669730	1.507400
7.246080	-3.669750	1.508700
7.246130	-3.669790	1.510000
7.245990	-3.669720	1.511260
7.246160	-3.669810	1.512590
7.246400	-3.669930	1.513920
7.246250	-3.669860	1.515180
7.246370	-3.669930	1.516500
7.246800	-3.670150	1.517880
7.246980	-3.670240	1.519200
7.247150	-3.670340	1.520530
7.247320	-3.670420	1.521850
7.247690	-3.670610	1.523220
7.247930	-3.670740	1.524560
7.248230	-3.670900	1.525920
7.248470	-3.671020	1.527260
7.248900	-3.671240	1.528640
7.249910	-3.671760	1.530140
7.250720	-3.672170	1.531600
7.250960	-3.672300	1.532940
7.251770	-3.672710	1.534410
7.252390	-3.673030	1.535830
7.253340	-3.673520	1.537320
7.254410	-3.674060	1.538840
7.255090	-3.674410	1.540280
7.256290	-3.675020	1.541820
7.257350	-3.675570	1.543340
7.258110	-3.675950	1.544800
7.258530	-3.676170	1.546180
7.255940	-3.674860	1.546920
7.302390	-3.699470	1.464750
7.291910	-3.694170	1.463950
7.283820	-3.690070	1.463610
7.278160	-3.687210	1.463770
7.274820	-3.685520	1.464390
7.272560	-3.684380	1.465220
7.270950	-3.683570	1.466190
7.269080	-3.682630	1.467100
7.267530	-3.681850	1.468080
7.265850	-3.681000	1.469030
7.263850	-3.679990	1.469920
7.262560	-3.679340	1.470940
7.261720	-3.678920	1.472060
7.260680	-3.678400	1.473140
7.259510	-3.677810	1.474190
7.258530	-3.677320	1.475290
7.257760	-3.676930	1.476420
7.256720	-3.676410	1.477490
7.255940	-3.676010	1.478620
7.255540	-3.675820	1.479830
7.254760	-3.675420	1.480960
7.253920	-3.675000	1.482080
7.253070	-3.674580	1.483190
7.252420	-3.674250	1.484350
7.251770	-3.673920	1.485500
7.251240	-3.673660	1.486680
7.250450	-3.673270	1.487810
7.249860	-3.672970	1.488980
7.249400	-3.672740	1.490170
7.249060	-3.672570	1.491390
7.248480	-3.672280	1.492560
7.248270	-3.672180	1.493810
7.248000	-3.672050	1.495040
7.247600	-3.671850	1.496240
7.247390	-3.671750	1.497490
7.247260	-3.671680	1.498750
7.246660	-3.671390	1.499920
7.246330	-3.671220	1.501130
7.246250	-3.671180	1.502410
7.246300	-3.671210	1.503710
7.245960	-3.671040	1.504920
7.245500	-3.670810	1.506120
7.245670	-3.670910	1.507440
7.246050	-3.671100	1.508810
7.245960	-3.671060	1.510080
7.246020	-3.671090	1.511380
7.245930	-3.671050	1.512650
7.245660	-3.670920	1.513880
7.245900	-3.671050	1.515220
7.246590	-3.671400	1.516660
7.246700	-3.671460	1.517970
7.246880	-3.671550	1.519300
7.246920	-3.671580	1.520600
7.246960	-3.671610	1.521890
7.247530	-3.671890	1.523300
7.247570	-3.671920	1.524600
7.247880	-3.672080	1.525960
7.248560	-3.672430	1.527390
7.248870	-3.672590	1.528750
7.249300	-3.672810	1.530130
7.249980	-3.673160	1.531560
7.250790	-3.673580	1.533030
7.251420	-3.673900	1.534450
7.252040	-3.674220	1.535870
7.253040	-3.674730	1.537380
7.254170	-3.675310	1.538910
7.255310	-3.675890	1.540440
7.256180	-3.676330	1.541920
7.257250	-3.676880	1.543440
7.258450	-3.677490	1.544990
7.258370	-3.677450	1.546260
7.254630	-3.675560	1.546760
7.303740	-3.701590	1.465140
7.294550	-3.696940	1.464590
7.286710	-3.692970	1.464310
7.279710	-3.689420	1.464190
7.275210	-3.687150	1.464580
7.272510	-3.685780	1.465330
7.270830	-3.684930	1.466280
7.269080	-3.684050	1.467220
7.267210	-3.683110	1.468130
7.265920	-3.682460	1.469160
7.264560	-3.681770	1.470180
7.263080	-3.681020	1.471170
7.262100	-3.680530	1.472260
7.260680	-3.679820	1.473260
7.259460	-3.679200	1.474300
7.258480	-3.678710	1.475390
7.257440	-3.678190	1.476470
7.256600	-3.677760	1.477590
7.255820	-3.677370	1.478720
7.254780	-3.676850	1.479790
7.254320	-3.676620	1.480990
7.253730	-3.676330	1.482160
7.252810	-3.675870	1.483260
7.252040	-3.675480	1.484390
7.251700	-3.675310	1.485610
7.250860	-3.674890	1.486720
7.250520	-3.674720	1.487940
7.249740	-3.674330	1.489070
7.249020	-3.673970	1.490210
7.249010	-3.673970	1.491500
7.248420	-3.673670	1.492660
7.248080	-3.673500	1.493880
7.247300	-3.673110	1.495010
7.246830	-3.672880	1.496200
7.247080	-3.673010	1.497540
7.246810	-3.672870	1.498780
7.246540	-3.672740	1.500010
7.246330	-3.672640	1.501250
7.246060	-3.672510	1.502490
7.246050	-3.672510	1.503770
7.245900	-3.672440	1.505030
7.245950	-3.672460	1.506330
7.245870	-3.672430	1.507600
7.245790	-3.672390	1.508870
7.245710	-3.672350	1.510150
7.245370	-3.672190	1.511370
7.245100	-3.672050	1.512600
7.245470	-3.672250	1.513970
7.245710	-3.672370	1.515300
7.245700	-3.672370	1.516590
7.246000	-3.672520	1.517940
7.246690	-3.672880	1.519380
7.246410	-3.672740	1.520610
7.246330	-3.672700	1.521880
7.247210	-3.673150	1.523360
7.247640	-3.673370	1.524740
7.247950	-3.673530	1.526090
7.248370	-3.673760	1.527470
7.248870	-3.674010	1.528870
7.249300	-3.674230	1.530250
7.249540	-3.674360	1.531590
7.250550	-3.674870	1.533090
7.251480	-3.675350	1.534580
7.252170	-3.675700	1.536020
7.252730	-3.675990	1.537430
7.253790	-3.676530	1.538950
7.254990	-3.677150	1.540500
7.256380	-3.677850	1.542080
7.256940	-3.678140	1.543500
7.257560	-3.678460	1.544920
7.257020	-3.678190	1.546100
7.305920	-3.704120	1.465690
7.297250	-3.699730	1.465250
7.289410	-3.695760	1.464970
7.282340	-3.692180	1.464840
7.276370	-3.689160	1.464930
7.273280	-3.687590	1.465600
7.270510	-3.686200	1.466330
7.268450	-3.685150	1.467210
7.267160	-3.684500	1.468240
7.265860	-3.683850	1.469260
7.264240	-3.683030	1.470230
7.262690	-3.682250	1.471200
7.261660	-3.681730	1.472280
7.260750	-3.681280	1.473390
7.259900	-3.680850	1.474510
7.258740	-3.680260	1.475560
7.257450	-3.679610	1.476590
7.256790	-3.679280	1.477740
7.255820	-3.678800	1.478830
7.254710	-3.678240	1.479900
7.254000	-3.677880	1.481040
7.253280	-3.677520	1.482180
7.252700	-3.677230	1.483350
7.251910	-3.676830	1.484480
7.251320	-3.676540	1.485650
7.251060	-3.676410	1.486880
7.250330	-3.676050	1.488020
7.249620	-3.675690	1.489160
7.249340	-3.675550	1.490400
7.249140	-3.675450	1.491640
7.248230	-3.674990	1.492740
7.247830	-3.674800	1.493950
7.247760	-3.674760	1.495220
7.247170	-3.674470	1.496390
7.246830	-3.674300	1.497610
7.246680	-3.674230	1.498870
7.246350	-3.674070	1.500090
7.246210	-3.674000	1.501350
7.245880	-3.673830	1.502570
7.245670	-3.673730	1.503810
7.245720	-3.673760	1.505110
7.245260	-3.673530	1.506300
7.245050	-3.673430	1.507550
7.244960	-3.673390	1.508820
7.245330	-3.673580	1.510190
7.245440	-3.673640	1.511500
7.245360	-3.673600	1.512770
7.245540	-3.673700	1.514100
7.245530	-3.673690	1.515380
7.245700	-3.673790	1.516710
7.245880	-3.673880	1.518040
7.246180	-3.674040	1.519390
7.246350	-3.674130	1.520720
7.246650	-3.674290	1.522070
7.247150	-3.674540	1.523470
7.247260	-3.674600	1.524780
7.247760	-3.674860	1.526170
7.248250	-3.675110	1.527570
7.248870	-3.675430	1.528990
7.249300	-3.675650	1.530370
7.249480	-3.675750	1.531700
7.250290	-3.676160	1.533160
7.251300	-3.676680	1.534670
7.252170	-3.677120	1.536140
7.252670	-3.677380	1.537540
7.253480	-3.677800	1.539000
7.255130	-3.678640	1.540650
7.256200	-3.679180	1.542170
7.256940	-3.679560	1.543620
7.257500	-3.679850	1.545030
7.255750	-3.678970	1.545950
7.306690	-3.705950	1.465960
7.298600	-3.701850	1.465640
7.291140	-3.698070	1.465430
7.283820	-3.694360	1.465250
7.277590	-3.691200	1.465290
7.273670	-3.689220	1.465790
7.271020	-3.687880	1.466550
7.269020	-3.686870	1.467440
7.267220	-3.685960	1.468370
7.265410	-3.685050	1.469290
7.263540	-3.684100	1.470200
7.262250	-3.683450	1.471230
7.261340	-3.682990	1.472340
7.260430	-3.682540	1.473440
7.259520	-3.682080	1.474550
7.257970	-3.681300	1.475520
7.257000	-3.680810	1.476610
7.256220	-3.680410	1.477740
7.255500	-3.680060	1.478890
7.254780	-3.679690	1.480030
7.254010	-3.679300	1.481160
7.253030	-3.678810	1.482250
7.252120	-3.678360	1.483350
7.251400	-3.677990	1.484490
7.250810	-3.677700	1.485660
7.250540	-3.677570	1.486890
7.250150	-3.677370	1.488100
7.249690	-3.677140	1.489300
7.249030	-3.676810	1.490450
7.248700	-3.676650	1.491670
7.248240	-3.676420	1.492860
7.247450	-3.676020	1.493990
7.247190	-3.675890	1.495220
7.246790	-3.675690	1.496430
7.246320	-3.675460	1.497620
7.246180	-3.675390	1.498880
7.245970	-3.675290	1.500130
7.245830	-3.675220	1.501390
7.245620	-3.675120	1.502630
7.245220	-3.674920	1.503840
7.244890	-3.674760	1.505060
7.244870	-3.674750	1.506340
7.244790	-3.674720	1.507620
7.244970	-3.674810	1.508940
7.245210	-3.674940	1.510280
7.245190	-3.674930	1.511570
7.244790	-3.674730	1.512770
7.244840	-3.674760	1.514070
7.245340	-3.675020	1.515470
7.245190	-3.674950	1.516720
7.245110	-3.674910	1.518000
7.245800	-3.675260	1.519430
7.246290	-3.675520	1.520820
7.246080	-3.675420	1.522070
7.246390	-3.675580	1.523420
7.247010	-3.675890	1.524850
7.247630	-3.676210	1.526270
7.248000	-3.676410	1.527640
7.248430	-3.676630	1.529020
7.248920	-3.676880	1.530410
7.249730	-3.677300	1.531870
7.250490	-3.677680	1.533320
7.250920	-3.677900	1.534710
7.251480	-3.678190	1.536120
7.252600	-3.678770	1.537650
7.253550	-3.679250	1.539140
7.254560	-3.679770	1.540650
7.255740	-3.680370	1.542190
7.256750	-3.680890	1.543700
7.256610	-3.680820	1.544960
7.253630	-3.679310	1.545620
7.316820	-3.712570	1.466820
7.306600	-3.707390	1.466070
7.299860	-3.703970	1.466010
7.293570	-3.700780	1.466040
7.285920	-3.696900	1.465800
7.278780	-3.693290	1.465650
7.274030	-3.690880	1.465990
7.270880	-3.689280	1.466640
7.268810	-3.688240	1.467520
7.267330	-3.687490	1.468510
7.265780	-3.686710	1.469490
7.264040	-3.685830	1.470420
7.262610	-3.685110	1.471420
7.261260	-3.684430	1.472440
7.259960	-3.683770	1.473470
7.259310	-3.683450	1.474620
7.258410	-3.682990	1.475730
7.257180	-3.682370	1.476770
7.256080	-3.681820	1.477830
7.255040	-3.681290	1.478910
7.254120	-3.680830	1.480010
7.253600	-3.680570	1.481200
7.253080	-3.680310	1.482380
7.252230	-3.679890	1.483490
7.251250	-3.679390	1.484580
7.250730	-3.679130	1.485770
7.250010	-3.678770	1.486910
7.249680	-3.678610	1.488130
7.249220	-3.678380	1.489320
7.248760	-3.678150	1.490520
7.248100	-3.677820	1.491670
7.247770	-3.677650	1.492890
7.247370	-3.677450	1.494100
7.247040	-3.677290	1.495320
7.246830	-3.677190	1.496560
7.246490	-3.677020	1.497780
7.246290	-3.676920	1.499030
7.245890	-3.676720	1.500230
7.245300	-3.676430	1.501400
7.245220	-3.676390	1.502670
7.245010	-3.676290	1.503920
7.245190	-3.676380	1.505240
7.244980	-3.676280	1.506490
7.244710	-3.676150	1.507720
7.245080	-3.676340	1.509090
7.244940	-3.676270	1.510350
7.244410	-3.676010	1.511530
7.244970	-3.676300	1.512930
7.245210	-3.676420	1.514270
7.245060	-3.676350	1.515530
7.245110	-3.676380	1.516830
7.245280	-3.676470	1.518160
7.245460	-3.676560	1.519480
7.245570	-3.676630	1.520800
7.245940	-3.676820	1.522170
7.246370	-3.677040	1.523550
7.246920	-3.677320	1.524950
7.247290	-3.677510	1.526320
7.247790	-3.677770	1.527720
7.248410	-3.678090	1.529140
7.248770	-3.678280	1.530510
7.249530	-3.678660	1.531960
7.250090	-3.678950	1.533370
7.250710	-3.679270	1.534790
7.251840	-3.679850	1.536320
7.252780	-3.680330	1.537810
7.253590	-3.680750	1.539280
7.254280	-3.681100	1.540710
7.255540	-3.681740	1.542270
7.256410	-3.682190	1.543750
7.255360	-3.681660	1.544820
7.317370	-3.714340	1.467050
7.308190	-3.709680	1.466500
7.302600	-3.706840	1.466680
7.296870	-3.703940	1.466820
7.289610	-3.700260	1.466660
7.281460	-3.696130	1.466310
7.275680	-3.693200	1.466440
7.271750	-3.691210	1.466940
7.268930	-3.689780	1.467660
7.267310	-3.688960	1.468630
7.265440	-3.688020	1.469540
7.264080	-3.687330	1.470550
7.262400	-3.686480	1.471500
7.261050	-3.685800	1.472520
7.260080	-3.685310	1.473610
7.259230	-3.684880	1.474730
7.257930	-3.684230	1.475750
7.256890	-3.683710	1.476830
7.256120	-3.683320	1.477960
7.255010	-3.682760	1.479030
7.254240	-3.682370	1.480160
7.253520	-3.682010	1.481300
7.252610	-3.681550	1.482410
7.252140	-3.681320	1.483600
7.251370	-3.680930	1.484730
7.250590	-3.680540	1.485860
7.250060	-3.680270	1.487040
7.249280	-3.679880	1.488170
7.248750	-3.679620	1.489350
7.248350	-3.679420	1.490550
7.247640	-3.679060	1.491700
7.247430	-3.678960	1.492940
7.247230	-3.678860	1.494190
7.246700	-3.678590	1.495370
7.246430	-3.678460	1.496600
7.245960	-3.678230	1.497790
7.245690	-3.678090	1.499030
7.245360	-3.677930	1.500250
7.245340	-3.677920	1.501530
7.245070	-3.677790	1.502770
7.244860	-3.677690	1.504010
7.244660	-3.677590	1.505260
7.244640	-3.677590	1.506540
7.244500	-3.677520	1.507800
7.244610	-3.677580	1.509120
7.244470	-3.677510	1.510370
7.244520	-3.677540	1.511680
7.244570	-3.677570	1.512970
7.244610	-3.677590	1.514270
7.244660	-3.677620	1.515570
7.244700	-3.677650	1.516870
7.245010	-3.677810	1.518230
7.245190	-3.677900	1.519550
7.245620	-3.678120	1.520930
7.246050	-3.678350	1.522310
7.246160	-3.678410	1.523630
7.246650	-3.678660	1.525020
7.247080	-3.678880	1.526400
7.247510	-3.679110	1.527780
7.247690	-3.679200	1.529110
7.248370	-3.679550	1.530550
7.249250	-3.680000	1.532020
7.249940	-3.680350	1.533460
7.250560	-3.680670	1.534880
7.251430	-3.681120	1.536360
7.252310	-3.681570	1.537840
7.253510	-3.682180	1.539380
7.254570	-3.682730	1.540900
7.255130	-3.683010	1.542310
7.255300	-3.683110	1.543640
7.253750	-3.682320	1.544610
7.314760	-3.714390	1.466640
7.307820	-3.710870	1.466540
7.303200	-3.708530	1.466910
7.297920	-3.705850	1.467150
7.291560	-3.702630	1.467160
7.284180	-3.698880	1.466970
7.276860	-3.695170	1.466790
7.272610	-3.693020	1.467220
7.269720	-3.691550	1.467930
7.267270	-3.690310	1.468730
7.265470	-3.689400	1.469650
7.264300	-3.688810	1.470710
7.262680	-3.687990	1.471670
7.261140	-3.687210	1.472650
7.259970	-3.686620	1.473700
7.258800	-3.686040	1.474750
7.257760	-3.685510	1.475830
7.257050	-3.685160	1.476980
7.256080	-3.684660	1.478070
7.255040	-3.684140	1.479150
7.254060	-3.683650	1.480240
7.253100	-3.683160	1.481330
7.252630	-3.682930	1.482520
7.252050	-3.682640	1.483690
7.250940	-3.682080	1.484750
7.250160	-3.681680	1.485880
7.249770	-3.681490	1.487090
7.249490	-3.681360	1.488320
7.248840	-3.681030	1.489480
7.248190	-3.680700	1.490630
7.247790	-3.680500	1.491840
7.247450	-3.680340	1.493060
7.247120	-3.680170	1.494280
7.246530	-3.679880	1.495450
7.246390	-3.679810	1.496710
7.245930	-3.679580	1.497900
7.245590	-3.679410	1.499120
7.245450	-3.679340	1.500380
7.244980	-3.679110	1.501570
7.244650	-3.678950	1.502790
7.245020	-3.679140	1.504160
7.244880	-3.679070	1.505420
7.244670	-3.678970	1.506660
7.244460	-3.678860	1.507910
7.244640	-3.678960	1.509240
7.244820	-3.679050	1.510560
7.244730	-3.679010	1.511830
7.244520	-3.678910	1.513080
7.244510	-3.678910	1.514370
7.244620	-3.678970	1.515680
7.244980	-3.679160	1.517050
7.245040	-3.679190	1.518350
7.245140	-3.679250	1.519660
7.245320	-3.679340	1.520990
7.245560	-3.679460	1.522330
7.246500	-3.679950	1.523820
7.246930	-3.680170	1.525200
7.247420	-3.680420	1.526590
7.247920	-3.680680	1.527990
7.248220	-3.680840	1.529340
7.248780	-3.681130	1.530750
7.249530	-3.681510	1.532200
7.250410	-3.681960	1.533680
7.251090	-3.682310	1.535110
7.252040	-3.682800	1.536600
7.253300	-3.683440	1.538160
7.253920	-3.683760	1.539590
7.254790	-3.684210	1.541070
7.255930	-3.684790	1.542600
7.255580	-3.684620	1.543820
7.250830	-3.682200	1.544100
7.314950	-3.715920	1.466790
7.307890	-3.712330	1.466670
7.304220	-3.710470	1.467230
7.300040	-3.708360	1.467690
7.294640	-3.705620	1.467900
7.287640	-3.702060	1.467780
7.280580	-3.698480	1.467650
7.274220	-3.695260	1.467670
7.270170	-3.693200	1.468140
7.267720	-3.691960	1.468940
7.265850	-3.691020	1.469850
7.264370	-3.690270	1.470840
7.263080	-3.689610	1.471870
7.262100	-3.689120	1.472960
7.260360	-3.688240	1.473900
7.258690	-3.687400	1.474850
7.257900	-3.687000	1.475980
7.256670	-3.686380	1.477020
7.255830	-3.685960	1.478130
7.255240	-3.685660	1.479300
7.254650	-3.685360	1.480470
7.253480	-3.684780	1.481520
7.252510	-3.684290	1.482620
7.251980	-3.684020	1.483800
7.251460	-3.683760	1.484980
7.250740	-3.683400	1.486120
7.250280	-3.683170	1.487320
7.249440	-3.682750	1.488430
7.248780	-3.682420	1.489590
7.248120	-3.682090	1.490740
7.247660	-3.681860	1.491930
7.247460	-3.681760	1.493180
7.246800	-3.681430	1.494330
7.246270	-3.681160	1.495510
7.246200	-3.681130	1.496790
7.245990	-3.681030	1.498030
7.245730	-3.680900	1.499270
7.245390	-3.680730	1.500490
7.245120	-3.680600	1.501720
7.244780	-3.680430	1.502940
7.244510	-3.680290	1.504170
7.244810	-3.680450	1.505520
7.244610	-3.680350	1.506770
7.244400	-3.680250	1.508020
7.244710	-3.680410	1.509370
7.244440	-3.680280	1.510600
7.244160	-3.680140	1.511830
7.244530	-3.680330	1.513200
7.244650	-3.680390	1.514510
7.245080	-3.680620	1.515890
7.245060	-3.680610	1.517180
7.244970	-3.680570	1.518450
7.245150	-3.680670	1.519780
7.245640	-3.680920	1.521170
7.245760	-3.680980	1.522490
7.246320	-3.681270	1.523900
7.247000	-3.681620	1.525330
7.247310	-3.681780	1.526690
7.247610	-3.681940	1.528040
7.248290	-3.682290	1.529480
7.248910	-3.682610	1.530900
7.249720	-3.683030	1.532360
7.250610	-3.683480	1.533840
7.251480	-3.683930	1.535320
7.252490	-3.684440	1.536820
7.253360	-3.684890	1.538300
7.254050	-3.685240	1.539740
7.254860	-3.685660	1.541200
7.255860	-3.686170	1.542710
7.254880	-3.685680	1.543790
7.313220	-3.716480	1.466560
7.307370	-3.713510	1.466680
7.304280	-3.711940	1.467360
7.301130	-3.710340	1.468020
7.297080	-3.708290	1.468510
7.290660	-3.705030	1.468510
7.283020	-3.701150	1.468260
7.276460	-3.697820	1.468230
7.271640	-3.695380	1.468550
7.268420	-3.693750	1.469190
7.266050	-3.692540	1.470000
7.264430	-3.691730	1.470970
7.262690	-3.690850	1.471910
7.261520	-3.690260	1.472960
7.260430	-3.689700	1.474030
7.259070	-3.689010	1.475040
7.257710	-3.688330	1.476060
7.256990	-3.687970	1.477200
7.256210	-3.687580	1.478330
7.255110	-3.687020	1.479400
7.254270	-3.686600	1.480510
7.253480	-3.686200	1.481640
7.252380	-3.685650	1.482710
7.251660	-3.685280	1.483850
7.251200	-3.685060	1.485040
7.250610	-3.684760	1.486210
7.249650	-3.684270	1.487300
7.249120	-3.684010	1.488480
7.248780	-3.683840	1.489700
7.248320	-3.683610	1.490900
7.247540	-3.683220	1.492030
7.247010	-3.682950	1.493210
7.246930	-3.682920	1.494480
7.246660	-3.682780	1.495710
7.246200	-3.682550	1.496910
7.245740	-3.682320	1.498100
7.245270	-3.682090	1.499290
7.245260	-3.682090	1.500580
7.245320	-3.682120	1.501880
7.245110	-3.682020	1.503130
7.244580	-3.681750	1.504300
7.244620	-3.681780	1.505600
7.244610	-3.681780	1.506890
7.244590	-3.681770	1.508180
7.244640	-3.681800	1.509480
7.244430	-3.681700	1.510720
7.244490	-3.681730	1.512020
7.244590	-3.681790	1.513330
7.244520	-3.681750	1.514610
7.244620	-3.681810	1.515920
7.245060	-3.682030	1.517300
7.245170	-3.682100	1.518610
7.245410	-3.682220	1.519950
7.245520	-3.682280	1.521270
7.245880	-3.682470	1.522640
7.246440	-3.682760	1.524040
7.246940	-3.683020	1.525440
7.246990	-3.683040	1.526740
7.247480	-3.683300	1.528130
7.248100	-3.683620	1.529560
7.248970	-3.684070	1.531030
7.249670	-3.684420	1.532470
7.250350	-3.684770	1.533910
7.251290	-3.685260	1.535400
7.252300	-3.685770	1.536900
7.253240	-3.686250	1.538390
7.253990	-3.686640	1.539850
7.254730	-3.687020	1.541300
7.254710	-3.687010	1.542590
7.251940	-3.685610	1.543290
7.311920	-3.717140	1.466410
7.307220	-3.714750	1.466760
7.304840	-3.713550	1.467580
7.302200	-3.712210	1.468350
7.298660	-3.710420	1.468930
7.293580	-3.707840	1.469210
7.287100	-3.704540	1.469190
7.279970	-3.700930	1.469050
7.274450	-3.698120	1.469230
7.270210	-3.695970	1.469660
7.266990	-3.694340	1.470300
7.265440	-3.693550	1.471280
7.263950	-3.692800	1.472270
7.262020	-3.691820	1.473170
7.260920	-3.691270	1.474240
7.259690	-3.690650	1.475280
7.258390	-3.689990	1.476300
7.257360	-3.689470	1.477380
7.256450	-3.689010	1.478490
7.255410	-3.688490	1.479570
7.254120	-3.687840	1.480590
7.253340	-3.687440	1.481720
7.252560	-3.687050	1.482850
7.251770	-3.686650	1.483980
7.251250	-3.686390	1.485160
7.250920	-3.686230	1.486380
7.250130	-3.685830	1.487510
7.249480	-3.685500	1.488670
7.249350	-3.685440	1.489930
7.248680	-3.685110	1.491080
7.247970	-3.684750	1.492220
7.247830	-3.684680	1.493480
7.247300	-3.684420	1.494660
7.246710	-3.684120	1.495830
7.246380	-3.683950	1.497050
7.246170	-3.683850	1.498300
7.245770	-3.683650	1.499500
7.245560	-3.683550	1.500750
7.245430	-3.683490	1.502010
7.245150	-3.683350	1.503240
7.245010	-3.683280	1.504500
7.244870	-3.683210	1.505760
7.244530	-3.683040	1.506980
7.244510	-3.683040	1.508270
7.244440	-3.683010	1.509540
7.244670	-3.683130	1.510880
7.244600	-3.683100	1.512160
7.244700	-3.683160	1.513470
7.245010	-3.683320	1.514820
7.245060	-3.683340	1.516120
7.244910	-3.683270	1.517380
7.245150	-3.683400	1.518720
7.245400	-3.683530	1.520060
7.245950	-3.683810	1.521470
7.246190	-3.683940	1.522810
7.246240	-3.683970	1.524110
7.246470	-3.684090	1.525450
7.247100	-3.684410	1.526870
7.248030	-3.684890	1.528360
7.248730	-3.685250	1.529800
7.249280	-3.685530	1.531210
7.250350	-3.686080	1.532730
7.250980	-3.686400	1.534150
7.251720	-3.686780	1.535600
7.252530	-3.687200	1.537070
7.253670	-3.687780	1.538600
7.254800	-3.688360	1.540130
7.254720	-3.688320	1.541410
7.253670	-3.687800	1.542480
7.312060	-3.718590	1.466550
7.306540	-3.715780	1.466740
7.304480	-3.714740	1.467620
7.302730	-3.713860	1.468570
7.300280	-3.712610	1.469370
7.296430	-3.710660	1.469890
7.291040	-3.707920	1.470100
7.284100	-3.704390	1.469990
7.277090	-3.700840	1.469870
7.272020	-3.698260	1.470140
7.267910	-3.696170	1.470600
