-2.331180	6.925560	0.010080
-2.330980	6.924990	0.011510
-2.330700	6.924210	0.012930
-2.330450	6.923510	0.014350
-2.330220	6.922880	0.015780
-2.330010	6.922290	0.017200
-2.329800	6.921710	0.018620
-2.329610	6.921190	0.020050
-2.329470	6.920820	0.021470
-2.329390	6.920610	0.022890
-2.329220	6.920140	0.024320
-2.329120	6.919910	0.025740
-2.329060	6.919760	0.027160
-2.328950	6.919470	0.028580
-2.328870	6.919280	0.030010
-2.328810	6.919150	0.031430
-2.328820	6.919210	0.032850
-2.328740	6.919020	0.034280
-2.328760	6.919110	0.035700
-2.328670	6.918910	0.037130
-2.328730	6.919110	0.038550
-2.328760	6.919250	0.039980
-2.328850	6.919540	0.041400
-2.328840	6.919550	0.042830
-2.328890	6.919760	0.044260
-2.328980	6.920050	0.045680
-2.329010	6.920200	0.047110
-2.329190	6.920780	0.048540
-2.329270	6.921040	0.049970
-2.329390	6.921440	0.051390
-2.329570	6.922030	0.052820
-2.329690	6.922430	0.054250
-2.329950	6.923240	0.055680
-2.330100	6.923730	0.057110
-2.330330	6.924460	0.058540
-2.330500	6.924980	0.059970
-2.330840	6.926030	0.061410
-2.331130	6.926940	0.062840
-2.331460	6.927950	0.064270
-2.331770	6.928920	0.065710
-2.332010	6.929680	0.067140
-2.332420	6.930940	0.068580
-2.332800	6.932100	0.070020
-2.333350	6.933790	0.071460
-2.333800	6.935150	0.072900
-2.334340	6.936820	0.074350
-2.335010	6.938850	0.075790
-2.335450	6.940180	0.077240
-2.336230	6.942550	0.078690
-2.336980	6.944820	0.080140
-2.337660	6.946870	0.081600
-2.344540	6.967440	-0.063070
-2.344470	6.967280	-0.061640
-2.344410	6.967150	-0.060200
-2.344520	6.967520	-0.058770
-2.345380	6.970100	-0.057360
-2.348110	6.978270	-0.055990
-2.350510	6.985420	-0.054610
-2.350940	6.986760	-0.053180
-2.351200	6.987550	-0.051750
-2.350860	6.986580	-0.050310
-2.351040	6.987180	-0.048870
-2.350960	6.986990	-0.047440
-2.350910	6.986860	-0.046000
-2.351050	6.987330	-0.044560
-2.351260	6.987980	-0.043130
-2.351110	6.987600	-0.041690
-2.351440	6.988630	-0.040260
-2.351320	6.988320	-0.038820
-2.351090	6.987670	-0.037380
-2.351180	6.987990	-0.035950
-2.351090	6.987770	-0.034510
-2.351050	6.987700	-0.033070
-2.351010	6.987620	-0.031630
-2.351490	6.989110	-0.030200
-2.350990	6.987650	-0.028760
-2.351020	6.987800	-0.027320
-2.351370	6.988870	-0.025890
-2.351040	6.987930	-0.024440
-2.350870	6.987470	-0.023010
-2.350490	6.986370	-0.021560
-2.351040	6.988020	-0.020130
-2.350840	6.987490	-0.018690
-2.350830	6.987490	-0.017250
-2.350090	6.985320	-0.015810
-2.346510	6.974720	-0.014350
-2.340950	6.958230	-0.012890
-2.338590	6.951270	-0.011440
-2.337220	6.947250	-0.010010
-2.336250	6.944380	-0.008580
-2.335510	6.942230	-0.007140
-2.334670	6.939780	-0.005710
-2.334090	6.938100	-0.004290
-2.333470	6.936310	-0.002860
-2.332960	6.934820	-0.001430
-2.332360	6.933090	0.000000
-2.331910	6.931790	0.001420
-2.331550	6.930760	0.002850
-2.331180	6.929700	0.004270
-2.330690	6.928290	0.005700
-2.330410	6.927510	0.007120
-2.330120	6.926670	0.008550
-2.329850	6.925910	0.009970
-2.329600	6.925220	0.011400
-2.329230	6.924150	0.012820
-2.329080	6.923750	0.014240
-2.328830	6.923050	0.015670
-2.328660	6.922600	0.017090
-2.328400	6.921860	0.018510
-2.328220	6.921360	0.019940
-2.328100	6.921050	0.021360
-2.327950	6.920640	0.022780
-2.327810	6.920260	0.024210
-2.327810	6.920330	0.025630
-2.327650	6.919890	0.027050
-2.327590	6.919740	0.028480
-2.327510	6.919540	0.029900
-2.327410	6.919270	0.031320
-2.327420	6.919350	0.032740
-2.327360	6.919210	0.034170
-2.327380	6.919320	0.035590
-2.327340	6.919240	0.037010
-2.327360	6.919360	0.038440
-2.327390	6.919470	0.039860
-2.327430	6.919640	0.041280
-2.327450	6.919750	0.042710
-2.327470	6.919840	0.044130
-2.327570	6.920180	0.045560
-2.327650	6.920470	0.046980
-2.327780	6.920890	0.048410
-2.327870	6.921180	0.049840
-2.328040	6.921730	0.051270
-2.328180	6.922210	0.052690
-2.328340	6.922720	0.054120
-2.328440	6.923060	0.055550
-2.328710	6.923900	0.056980
-2.328970	6.924710	0.058410
-2.329210	6.925460	0.059850
-2.329410	6.926110	0.061280
-2.329780	6.927230	0.062710
-2.330050	6.928100	0.064150
-2.330320	6.928920	0.065580
-2.330680	6.930040	0.067020
-2.331080	6.931270	0.068460
-2.331430	6.932360	0.069890
-2.331790	6.933480	0.071330
-2.332480	6.935550	0.072780
-2.332910	6.936880	0.074220
-2.333560	6.938840	0.075670
-2.334090	6.940470	0.077120
-2.334780	6.942550	0.078570
-2.335530	6.944840	0.080020
-2.336170	6.946770	0.081470
-2.335410	6.944550	0.082880
-2.343380	6.968480	-0.063030
-2.343330	6.968360	-0.061590
-2.343250	6.968180	-0.060160
-2.343350	6.968520	-0.058720
-2.344380	6.971610	-0.057320
-2.347620	6.981280	-0.055960
-2.349260	6.986210	-0.054560
-2.349700	6.987550	-0.053130
-2.349870	6.988100	-0.051700
-2.350000	6.988510	-0.050260
-2.349960	6.988430	-0.048820
-2.350170	6.989110	-0.047390
-2.350060	6.988820	-0.045950
-2.350420	6.989950	-0.044520
-2.350160	6.989220	-0.043080
-2.350310	6.989710	-0.041640
-2.350250	6.989600	-0.040200
-2.349730	6.988100	-0.038760
-2.350170	6.989440	-0.037330
-2.350090	6.989260	-0.035890
-2.350310	6.989960	-0.034460
-2.349710	6.988230	-0.033010
-2.350030	6.989210	-0.031580
-2.349980	6.989110	-0.030140
-2.349760	6.988490	-0.028700
-2.349760	6.988530	-0.027260
-2.349980	6.989230	-0.025830
-2.350060	6.989500	-0.024390
-2.349740	6.988610	-0.022950
-2.349480	6.987870	-0.021510
-2.349570	6.988170	-0.020070
-2.349650	6.988470	-0.018630
-2.349640	6.988460	-0.017190
-2.348440	6.984930	-0.015750
-2.343770	6.971090	-0.014280
-2.338870	6.956550	-0.012820
-2.336910	6.950770	-0.011380
-2.335610	6.946930	-0.009940
-2.334650	6.944120	-0.008510
-2.333930	6.942020	-0.007080
-2.333270	6.940090	-0.005650
-2.332570	6.938060	-0.004220
-2.332010	6.936410	-0.002790
-2.331490	6.934910	-0.001370
-2.330890	6.933170	0.000060
-2.330530	6.932120	0.001490
-2.330090	6.930870	0.002910
-2.329620	6.929520	0.004340
-2.329320	6.928660	0.005760
-2.328950	6.927590	0.007190
-2.328720	6.926960	0.008610
-2.328430	6.926130	0.010040
-2.328070	6.925110	0.011460
-2.327800	6.924350	0.012880
-2.327570	6.923710	0.014310
-2.327470	6.923440	0.015730
-2.327220	6.922740	0.017150
-2.327020	6.922200	0.018580
-2.326860	6.921750	0.020000
-2.326770	6.921540	0.021420
-2.326490	6.920750	0.022840
-2.326490	6.920780	0.024270
-2.326380	6.920500	0.025690
-2.326290	6.920280	0.027120
-2.326170	6.919950	0.028540
-2.326100	6.919790	0.029960
-2.326060	6.919720	0.031390
-2.326060	6.919770	0.032810
-2.325970	6.919520	0.034230
-2.325980	6.919610	0.035660
-2.325960	6.919590	0.037080
-2.325960	6.919610	0.038510
-2.325960	6.919660	0.039930
-2.326000	6.919840	0.041350
-2.326070	6.920060	0.042780
-2.326140	6.920330	0.044200
-2.326170	6.920440	0.045630
-2.326230	6.920660	0.047050
-2.326350	6.921060	0.048480
-2.326550	6.921710	0.049900
-2.326680	6.922150	0.051330
-2.326840	6.922650	0.052760
-2.326950	6.923030	0.054190
-2.327140	6.923620	0.055610
-2.327380	6.924380	0.057050
-2.327630	6.925160	0.058480
-2.327710	6.925460	0.059900
-2.328070	6.926570	0.061340
-2.328300	6.927290	0.062770
-2.328540	6.928050	0.064200
-2.328940	6.929270	0.065640
-2.329280	6.930320	0.067080
-2.329600	6.931310	0.068510
-2.330080	6.932780	0.069950
-2.330470	6.933990	0.071390
-2.331050	6.935760	0.072840
-2.331550	6.937280	0.074280
-2.332150	6.939100	0.075730
-2.332600	6.940500	0.077170
-2.333490	6.943170	0.078630
-2.334270	6.945530	0.080090
-2.334990	6.947710	0.081540
-2.334580	6.946550	0.082960
-2.342230	6.969490	-0.063420
-2.342210	6.969470	-0.061990
-2.342210	6.969510	-0.060560
-2.342100	6.969240	-0.059120
-2.342800	6.971370	-0.057710
-2.345310	6.978870	-0.056330
-2.347800	6.986300	-0.054960
-2.348380	6.988070	-0.053540
-2.348900	6.989670	-0.052110
-2.348710	6.989160	-0.050670
-2.348640	6.989000	-0.049230
-2.349010	6.990130	-0.047800
-2.348790	6.989510	-0.046350
-2.348600	6.988990	-0.044910
-2.348880	6.989870	-0.043480
-2.348690	6.989330	-0.042030
-2.348980	6.990260	-0.040600
-2.348570	6.989070	-0.039150
-2.348610	6.989230	-0.037720
-2.348970	6.990340	-0.036280
-2.348920	6.990250	-0.034840
-2.348820	6.989970	-0.033410
-2.348830	6.990050	-0.031970
-2.348840	6.990110	-0.030530
-2.348580	6.989380	-0.029090
-2.348850	6.990250	-0.027650
-2.348860	6.990300	-0.026220
-2.348640	6.989700	-0.024780
-2.348570	6.989530	-0.023340
-2.348540	6.989480	-0.021900
-2.348620	6.989750	-0.020460
-2.348380	6.989080	-0.019020
-2.348510	6.989510	-0.017590
-2.347700	6.987140	-0.016140
-2.344130	6.976580	-0.014690
-2.338360	6.959440	-0.013220
-2.335780	6.951830	-0.011780
-2.334460	6.947910	-0.010340
-2.333690	6.945660	-0.008910
-2.332640	6.942590	-0.007480
-2.332040	6.940860	-0.006050
-2.331390	6.938960	-0.004620
-2.330770	6.937140	-0.003190
-2.330160	6.935380	-0.001760
-2.329700	6.934060	-0.000330
-2.329300	6.932900	0.001090
-2.328850	6.931620	0.002520
-2.328450	6.930450	0.003950
-2.328030	6.929260	0.005370
-2.327770	6.928520	0.006800
-2.327340	6.927290	0.008220
-2.327110	6.926640	0.009650
-2.326870	6.925980	0.011070
-2.326580	6.925160	0.012490
-2.326270	6.924270	0.013920
-2.326140	6.923920	0.015340
-2.325880	6.923200	0.016760
-2.325630	6.922480	0.018180
-2.325470	6.922040	0.019610
-2.325400	6.921880	0.021030
-2.325260	6.921500	0.022450
-2.325050	6.920920	0.023880
-2.325040	6.920950	0.025300
-2.324890	6.920520	0.026720
-2.324830	6.920390	0.028140
-2.324740	6.920160	0.029560
-2.324730	6.920170	0.030990
-2.324660	6.920020	0.032410
-2.324580	6.919820	0.033830
-2.324540	6.919740	0.035250
-2.324540	6.919780	0.036680
-2.324580	6.919960	0.038100
-2.324610	6.920080	0.039520
-2.324640	6.920220	0.040950
-2.324630	6.920210	0.042370
-2.324700	6.920480	0.043800
-2.324770	6.920710	0.045220
-2.324830	6.920930	0.046650
-2.325070	6.921730	0.049500
-2.325220	6.922230	0.050930
-2.325350	6.922640	0.052360
-2.325520	6.923180	0.053790
-2.325720	6.923820	0.055220
-2.325860	6.924300	0.056650
-2.326110	6.925080	0.058080
-2.326270	6.925600	0.059510
-2.326510	6.926340	0.060940
-2.326910	6.927580	0.062380
-2.327030	6.927990	0.063810
-2.327460	6.929310	0.065240
-2.327770	6.930270	0.066680
-2.328150	6.931430	0.068120
-2.328540	6.932650	0.069550
-2.328990	6.934030	0.070990
-2.329480	6.935520	0.072430
-2.329880	6.936740	0.073870
-2.330430	6.938420	0.075320
-2.331170	6.940670	0.076770
-2.331780	6.942530	0.078220
-2.332310	6.944150	0.079670
-2.333220	6.946910	0.081130
-2.333530	6.947880	0.082570
-2.341110	6.970690	-0.063570
-2.341100	6.970690	-0.062130
-2.341070	6.970670	-0.060700
-2.341000	6.970480	-0.059260
-2.341390	6.971690	-0.057840
-2.343760	6.978790	-0.056460
-2.346890	6.988140	-0.055100
-2.347180	6.989060	-0.053670
-2.347530	6.990120	-0.052240
-2.347810	6.991020	-0.050810
-2.347690	6.990690	-0.049370
-2.347600	6.990460	-0.047930
-2.348000	6.991710	-0.046500
-2.347830	6.991250	-0.045060
-2.347560	6.990490	-0.043620
-2.347880	6.991470	-0.042190
-2.347600	6.990680	-0.040740
-2.347940	6.991730	-0.039310
-2.347540	6.990580	-0.037870
-2.347730	6.991180	-0.036430
-2.347640	6.990950	-0.034990
-2.347640	6.991020	-0.033560
-2.347510	6.990650	-0.032120
-2.347590	6.990960	-0.030680
-2.347550	6.990860	-0.029240
-2.347800	6.991640	-0.027800
-2.347450	6.990650	-0.026360
-2.347540	6.990960	-0.024920
-2.347690	6.991450	-0.023490
-2.346920	6.989190	-0.022040
-2.347430	6.990770	-0.020610
-2.347010	6.989570	-0.019160
-2.347280	6.990390	-0.017730
-2.346980	6.989550	-0.016290
-2.342860	6.977320	-0.014820
-2.337190	6.960480	-0.013360
-2.334770	6.953330	-0.011910
-2.333250	6.948840	-0.010480
-2.332330	6.946150	-0.009050
-2.331470	6.943640	-0.007610
-2.330610	6.941100	-0.006180
-2.329970	6.939250	-0.004760
-2.329340	6.937400	-0.003330
-2.328820	6.935910	-0.001900
-2.328330	6.934480	-0.000470
-2.327770	6.932850	0.000950
-2.327400	6.931790	0.002380
-2.327020	6.930710	0.003800
-2.326670	6.929700	0.005230
-2.326310	6.928690	0.006650
-2.326040	6.927910	0.008080
-2.325700	6.926930	0.009500
-2.325450	6.926240	0.010930
-2.325110	6.925270	0.012350
-2.324910	6.924720	0.013770
-2.324720	6.924190	0.015200
-2.324520	6.923630	0.016620
-2.324400	6.923310	0.018040
-2.324060	6.922390	0.020890
-2.323850	6.921810	0.022310
-2.323720	6.921470	0.023740
-2.323630	6.921230	0.025160
-2.323550	6.921040	0.026580
-2.323470	6.920860	0.028010
-2.323370	6.920590	0.029430
-2.323340	6.920540	0.030850
-2.323200	6.920170	0.032280
-2.323210	6.920230	0.033700
-2.323260	6.920430	0.035130
-2.323150	6.920130	0.036550
-2.323110	6.920060	0.037970
-2.323190	6.920340	0.039390
-2.323240	6.920520	0.040820
-2.323330	6.920830	0.042240
-2.323380	6.921030	0.043670
-2.323340	6.920950	0.045090
-2.323510	6.921510	0.046520
-2.323490	6.921500	0.047940
-2.323720	6.922210	0.049370
-2.323800	6.922490	0.050800
-2.323960	6.923020	0.052230
-2.324170	6.923680	0.053660
-2.324260	6.923990	0.055080
-2.324410	6.924460	0.056510
-2.324710	6.925410	0.057950
-2.324890	6.925970	0.059380
-2.325090	6.926620	0.060810
-2.325410	6.927620	0.062240
-2.325590	6.928190	0.063670
-2.326040	6.929580	0.065110
-2.326370	6.930610	0.066550
-2.326730	6.931720	0.067990
-2.327140	6.932980	0.069420
-2.327460	6.933970	0.070860
-2.327900	6.935320	0.072300
-2.328430	6.936940	0.073750
-2.329060	6.938840	0.075200
-2.329570	6.940410	0.076640
-2.330300	6.942620	0.078100
-2.330960	6.944630	0.079550
-2.331700	6.946860	0.081000
-2.332390	6.948960	0.082460
-2.339940	6.971730	-0.063400
-2.339900	6.971650	-0.061960
-2.339950	6.971820	-0.060530
-2.340000	6.972030	-0.059090
-2.340750	6.974300	-0.057680
-2.343250	6.981800	-0.056300
-2.346070	6.990230	-0.054930
-2.346580	6.991780	-0.053510
-2.346340	6.991120	-0.052060
-2.346720	6.992300	-0.050630
-2.346370	6.991280	-0.049190
-2.346480	6.991660	-0.047750
-2.346750	6.992500	-0.046320
-2.346550	6.991960	-0.044880
-2.346790	6.992710	-0.043450
-2.346500	6.991880	-0.042000
-2.346540	6.992050	-0.040570
-2.346500	6.991970	-0.039130
-2.346620	6.992360	-0.037690
-2.346670	6.992550	-0.036250
-2.346560	6.992260	-0.034810
-2.346440	6.991940	-0.033370
-2.346190	6.991240	-0.031930
-2.346360	6.991800	-0.030490
-2.346400	6.991950	-0.029060
-2.346270	6.991610	-0.027620
-2.346120	6.991180	-0.026170
-2.346270	6.991680	-0.024740
-2.346480	6.992340	-0.023300
-2.346200	6.991550	-0.021860
-2.346050	6.991150	-0.020420
-2.346380	6.992180	-0.018990
-2.346380	6.992220	-0.017550
-2.345060	6.988320	-0.016110
-2.339440	6.971620	-0.014640
-2.334790	6.957820	-0.013180
-2.332780	6.951860	-0.011740
-2.331720	6.948750	-0.010300
-2.330800	6.946060	-0.008870
-2.329960	6.943600	-0.007440
-2.329130	6.941160	-0.006010
-2.328550	6.939480	-0.004580
-2.327860	6.937450	-0.003150
-2.327270	6.935740	-0.001730
-2.326900	6.934670	-0.000300
-2.326490	6.933490	0.001130
-2.325920	6.931830	0.002550
-2.325640	6.931050	0.003980
-2.325270	6.930000	0.005410
-2.324920	6.929000	0.006830
-2.324590	6.928030	0.008250
-2.324270	6.927140	0.009680
-2.324000	6.926370	0.011100
-2.323760	6.925700	0.012530
-2.323500	6.924960	0.013950
-2.323320	6.924460	0.015370
-2.323130	6.923920	0.016800
-2.322920	6.923370	0.018220
-2.322740	6.922840	0.019640
-2.322610	6.922500	0.021070
-2.322520	6.922280	0.022490
-2.322340	6.921780	0.023910
-2.322240	6.921530	0.025340
-2.322130	6.921240	0.026760
-2.322020	6.920970	0.028180
-2.322060	6.921100	0.029610
-2.321890	6.920650	0.031030
-2.321880	6.920660	0.032450
-2.321840	6.920590	0.033880
-2.321830	6.920600	0.035300
-2.321780	6.920490	0.036720
-2.321800	6.920600	0.038150
-2.321890	6.920890	0.039570
-2.321910	6.920990	0.041000
-2.321900	6.921000	0.042420
-2.322000	6.921340	0.043850
-2.321990	6.921370	0.045270
-2.322140	6.921850	0.046700
-2.322250	6.922220	0.048130
-2.322380	6.922650	0.049550
-2.322440	6.922870	0.050980
-2.322670	6.923600	0.052410
-2.322770	6.923920	0.053840
-2.322930	6.924450	0.055270
-2.323190	6.925250	0.056700
-2.323370	6.925820	0.058130
-2.323790	6.927160	0.060990
-2.324160	6.928310	0.062420
-2.324390	6.929020	0.063860
-2.324800	6.930310	0.065290
-2.325080	6.931170	0.066730
-2.325370	6.932080	0.068160
-2.325870	6.933620	0.069610
-2.326310	6.934950	0.071050
-2.326740	6.936300	0.072490
-2.327190	6.937670	0.073930
-2.327690	6.939200	0.075370
-2.328400	6.941350	0.076820
-2.329120	6.943530	0.078280
-2.329730	6.945410	0.079730
-2.330580	6.947970	0.081180
-2.331100	6.949580	0.082630
-2.338860	6.973050	-0.063050
-2.338760	6.972800	-0.061610
-2.338790	6.972930	-0.060180
-2.338770	6.972930	-0.058750
-2.340070	6.976840	-0.057340
-2.343030	6.985700	-0.055980
-2.345140	6.992050	-0.054590
-2.345070	6.991850	-0.053150
-2.345300	6.992580	-0.051720
-2.345660	6.993670	-0.050290
-2.345470	6.993140	-0.048850
-2.345700	6.993850	-0.047420
-2.345550	6.993450	-0.045970
-2.345480	6.993280	-0.044530
-2.345300	6.992810	-0.043090
-2.345340	6.992960	-0.041650
-2.345460	6.993350	-0.040220
-2.345490	6.993490	-0.038780
-2.345460	6.993450	-0.037340
-2.345130	6.992490	-0.035900
-2.344890	6.991840	-0.034450
-2.345460	6.993570	-0.033020
-2.345290	6.993100	-0.031580
-2.345030	6.992380	-0.030140
-2.345410	6.993540	-0.028710
-2.345270	6.993170	-0.027270
-2.345000	6.992410	-0.025830
-2.345430	6.993740	-0.024400
-2.344870	6.992090	-0.022950
-2.345010	6.992570	-0.021520
-2.345160	6.993050	-0.020080
-2.344980	6.992560	-0.018640
-2.344780	6.991990	-0.017200
-2.343230	6.987410	-0.015760
-2.337330	6.969880	-0.014280
-2.332820	6.956490	-0.012820
-2.331290	6.951960	-0.011380
-2.330060	6.948320	-0.009950
-2.329320	6.946170	-0.008520
-2.328370	6.943380	-0.007080
-2.327610	6.941170	-0.005650
-2.327030	6.939460	-0.004220
-2.326330	6.937430	-0.002790
-2.325890	6.936170	-0.001370
-2.325350	6.934570	0.000060
-2.324950	6.933440	0.001490
-2.324440	6.931960	0.002920
-2.324130	6.931080	0.004340
-2.323780	6.930070	0.005770
-2.323400	6.928980	0.007190
-2.323140	6.928250	0.008620
-2.322870	6.927470	0.010040
-2.322570	6.926640	0.011470
-2.322390	6.926150	0.012890
-2.322160	6.925490	0.014320
-2.321880	6.924700	0.015740
-2.321750	6.924360	0.017160
-2.321560	6.923840	0.018580
-2.321350	6.923230	0.020000
-2.321210	6.922860	0.021430
-2.321120	6.922650	0.022850
-2.320960	6.922190	0.024270
-2.320890	6.922030	0.025690
-2.320770	6.921740	0.027110
-2.320640	6.921380	0.028530
-2.320580	6.921250	0.029960
-2.320590	6.921320	0.031380
-2.320480	6.921020	0.032800
-2.320500	6.921110	0.034230
-2.320540	6.921280	0.035650
-2.320480	6.921150	0.037070
-2.320450	6.921110	0.038500
-2.320510	6.921330	0.039920
-2.320530	6.921420	0.041350
-2.320590	6.921630	0.042770
-2.320640	6.921840	0.044200
-2.320690	6.922040	0.045630
-2.320810	6.922420	0.047050
-2.320820	6.922490	0.048480
-2.321000	6.923070	0.049910
-2.321130	6.923510	0.051330
-2.321340	6.924180	0.052760
-2.321530	6.924770	0.054190
-2.321610	6.925050	0.055620
-2.321810	6.925710	0.057050
-2.322050	6.926450	0.058480
-2.322240	6.927060	0.059910
-2.322540	6.928010	0.061350
-2.322880	6.929060	0.062780
-2.323030	6.929550	0.064210
-2.323470	6.930900	0.065650
-2.323720	6.931680	0.067080
-2.324160	6.933030	0.068520
-2.324460	6.933980	0.069960
-2.324980	6.935570	0.071400
-2.325390	6.936830	0.072840
-2.325910	6.938420	0.074290
-2.326540	6.940340	0.075740
-2.327230	6.942450	0.077190
-2.327840	6.944290	0.078640
-2.328610	6.946630	0.080090
-2.329450	6.949190	0.081550
-2.329770	6.950180	0.082990
-2.337890	6.974510	-0.064270
-2.337820	6.974340	-0.062830
-2.337740	6.974140	-0.061390
-2.337690	6.974030	-0.059960
-2.337710	6.974140	-0.058520
-2.339220	6.978700	-0.057120
-2.342530	6.988580	-0.055770
-2.343760	6.992310	-0.054360
-2.343810	6.992500	-0.052930
-2.344220	6.993770	-0.051500
-2.344050	6.993310	-0.050060
-2.344370	6.994290	-0.048630
-2.344260	6.993990	-0.047190
-2.344260	6.994050	-0.045750
-2.344320	6.994280	-0.044310
-2.344150	6.993800	-0.042870
-2.344350	6.994440	-0.041440
-2.344030	6.993550	-0.040000
-2.344110	6.993820	-0.038560
-2.344200	6.994130	-0.037120
-2.344110	6.993910	-0.035680
-2.344000	6.993610	-0.034240
-2.344310	6.994580	-0.032800
-2.343920	6.993440	-0.031360
-2.343970	6.993640	-0.029920
-2.344430	6.995060	-0.028490
-2.344060	6.994010	-0.027040
-2.343550	6.992520	-0.025600
-2.343900	6.993610	-0.024170
-2.343970	6.993870	-0.022730
-2.343760	6.993280	-0.021290
-2.343680	6.993090	-0.019850
-2.344230	6.994750	-0.018420
-2.343600	6.992930	-0.016980
-2.342090	6.988460	-0.015530
-2.335820	6.969810	-0.014060
-2.331230	6.956160	-0.012600
-2.329820	6.951990	-0.011160
-2.328570	6.948310	-0.009730
-2.327510	6.945190	-0.008300
-2.326810	6.943140	-0.006870
-2.326250	6.941510	-0.005440
-2.325690	6.939860	-0.004010
-2.325220	6.938520	-0.002580
-2.324390	6.936080	-0.001160
-2.324070	6.935160	0.000270
-2.323500	6.933500	0.001700
-2.323140	6.932470	0.003120
-2.322830	6.931600	0.004550
-2.322410	6.930380	0.005970
-2.322120	6.929580	0.007400
-2.321850	6.928790	0.008820
-2.321540	6.927920	0.010250
-2.321250	6.927110	0.011670
-2.321010	6.926400	0.013090
-2.320850	6.925980	0.014520
-2.320570	6.925200	0.015940
-2.320320	6.924490	0.017360
-2.320170	6.924070	0.018790
-2.319970	6.923510	0.020210
-2.319880	6.923310	0.021630
-2.319760	6.922970	0.023060
-2.319650	6.922690	0.024480
-2.319550	6.922440	0.025900
-2.319460	6.922200	0.027320
-2.319370	6.921990	0.028750
-2.319270	6.921720	0.030170
-2.319270	6.921750	0.031590
-2.319180	6.921530	0.033010
-2.319100	6.921340	0.034430
-2.319130	6.921470	0.035860
-2.319180	6.921660	0.037280
-2.319160	6.921650	0.038700
-2.319170	6.921730	0.040130
-2.319230	6.921930	0.041550
-2.319290	6.922150	0.042980
-2.319270	6.922140	0.044400
-2.319410	6.922600	0.045830
-2.319470	6.922820	0.047260
-2.319560	6.923120	0.048680
-2.319730	6.923680	0.050110
-2.319850	6.924070	0.051540
-2.320000	6.924570	0.052970
-2.320210	6.925240	0.054400
-2.320360	6.925710	0.055820
-2.320550	6.926330	0.057250
-2.320730	6.926910	0.058680
-2.320940	6.927590	0.060120
-2.321280	6.928630	0.061550
-2.321520	6.929400	0.062980
-2.321790	6.930250	0.064420
-2.322130	6.931300	0.065850
-2.322610	6.932770	0.067290
-2.322920	6.933730	0.068730
-2.323090	6.934300	0.070160
-2.323710	6.936170	0.071610
-2.324200	6.937670	0.073050
-2.324680	6.939170	0.074490
-2.325160	6.940630	0.075930
-2.325890	6.942860	0.077390
-2.326480	6.944660	0.078830
-2.327430	6.947520	0.080300
-2.328080	6.949500	0.081750
-2.328110	6.949650	0.083180
-2.336720	6.975530	-0.063600
-2.336770	6.975720	-0.062170
-2.336630	6.975320	-0.060730
-2.336560	6.975180	-0.059300
-2.337100	6.976820	-0.057880
-2.339660	6.984510	-0.056500
-2.342030	6.991610	-0.055120
-2.342960	6.994420	-0.053710
-2.342980	6.994520	-0.052270
-2.343000	6.994630	-0.050830
-2.343030	6.994770	-0.049400
-2.343070	6.994940	-0.047960
-2.342940	6.994570	-0.046520
-2.342970	6.994710	-0.045080
-2.343340	6.995870	-0.043650
-2.343190	6.995460	-0.042210
-2.343210	6.995570	-0.040770
-2.343360	6.996060	-0.039330
-2.343190	6.995590	-0.037890
-2.342950	6.994900	-0.036450
-2.343380	6.996240	-0.035010
-2.343220	6.995800	-0.033570
-2.343070	6.995380	-0.032130
-2.343060	6.995410	-0.030690
-2.342890	6.994930	-0.029250
-2.343150	6.995760	-0.027820
-2.343210	6.995990	-0.026380
-2.342810	6.994820	-0.024940
-2.343120	6.995780	-0.023500
-2.343160	6.995960	-0.022070
-2.342570	6.994240	-0.020620
-2.342750	6.994810	-0.019190
-2.342620	6.994480	-0.017750
-2.342050	6.992820	-0.016300
-2.338200	6.981370	-0.014840
-2.331470	6.961310	-0.013370
-2.329140	6.954420	-0.011920
-2.327830	6.950540	-0.010490
-2.326830	6.947590	-0.009050
-2.326010	6.945190	-0.007620
-2.325130	6.942600	-0.006190
-2.324670	6.941260	-0.004760
-2.324010	6.939330	-0.003330
-2.323500	6.937860	-0.001900
-2.322900	6.936120	-0.000470
-2.322530	6.935040	0.000950
-2.322050	6.933670	0.002380
-2.321600	6.932370	0.003810
-2.321290	6.931460	0.005230
-2.320860	6.930240	0.006660
-2.320590	6.929470	0.008080
-2.320290	6.928610	0.009510
-2.319960	6.927660	0.010930
-2.319810	6.927260	0.012360
-2.319640	6.926800	0.013780
-2.319330	6.925900	0.015210
-2.319220	6.925630	0.016630
-2.318980	6.924940	0.018050
-2.318800	6.924450	0.019470
-2.318450	6.923490	0.022320
-2.318350	6.923240	0.023740
-2.318320	6.923200	0.025170
-2.318210	6.922920	0.026590
-2.318120	6.922670	0.028010
-2.318080	6.922610	0.029440
-2.317920	6.922170	0.030860
-2.317910	6.922190	0.032280
-2.317880	6.922130	0.033710
-2.317840	6.922050	0.035130
-2.317820	6.922030	0.036560
-2.317780	6.921960	0.037980
-2.317850	6.922210	0.039410
-2.317900	6.922380	0.040830
-2.317920	6.922510	0.042260
-2.317970	6.922700	0.043690
-2.318030	6.922920	0.045110
-2.318100	6.923170	0.046540
-2.318250	6.923650	0.047960
-2.318280	6.923770	0.049390
-2.318450	6.924350	0.050810
-2.318600	6.924810	0.052240
-2.318720	6.925210	0.053670
-2.318930	6.925890	0.055090
-2.319130	6.926530	0.056520
-2.319360	6.927230	0.057950
-2.319540	6.927800	0.059380
-2.319810	6.928640	0.060810
-2.320110	6.929590	0.062250
-2.320370	6.930400	0.063680
-2.320730	6.931510	0.065120
-2.321060	6.932520	0.066550
-2.321490	6.933850	0.067990
-2.321710	6.934550	0.069430
-2.322140	6.935880	0.070870
-2.322650	6.937430	0.072310
-2.323140	6.938920	0.073750
-2.323710	6.940690	0.075200
-2.324340	6.942590	0.076650
-2.325020	6.944680	0.078100
-2.325740	6.946860	0.079560
-2.326550	6.949310	0.081010
-2.327180	6.951260	0.082470
-2.335740	6.977010	-0.063490
-2.335620	6.976720	-0.062060
-2.335660	6.976860	-0.060620
-2.335540	6.976540	-0.059180
-2.336420	6.979220	-0.057770
-2.338980	6.986920	-0.056400
-2.341320	6.993940	-0.055020
-2.341620	6.994880	-0.053590
-2.342190	6.996610	-0.052160
-2.342110	6.996410	-0.050720
-2.342090	6.996400	-0.049280
-2.342040	6.996290	-0.047840
-2.341550	6.994880	-0.046400
-2.342320	6.997210	-0.044970
-2.341600	6.995110	-0.043520
-2.342040	6.996470	-0.042090
-2.341480	6.994830	-0.040640
-2.341840	6.995960	-0.039210
-2.341700	6.995560	-0.037770
-2.341970	6.996430	-0.036330
-2.341940	6.996390	-0.034890
-2.342140	6.997020	-0.033460
-2.341790	6.996010	-0.032020
-2.341940	6.996500	-0.030580
-2.341870	6.996330	-0.029140
-2.341970	6.996680	-0.027700
-2.342010	6.996850	-0.026260
-2.341780	6.996200	-0.024820
-2.341890	6.996570	-0.023380
-2.341950	6.996800	-0.021940
-2.341510	6.995530	-0.020500
-2.341720	6.996170	-0.019060
-2.341560	6.995750	-0.017620
-2.340620	6.992990	-0.016180
-2.336450	6.980560	-0.014710
-2.330420	6.962610	-0.013240
-2.327690	6.954480	-0.011800
-2.326410	6.950720	-0.010360
-2.325400	6.947750	-0.008930
-2.324690	6.945640	-0.007500
-2.323940	6.943460	-0.006070
-2.323230	6.941370	-0.004640
-2.322570	6.939460	-0.003210
-2.322040	6.937900	-0.001780
-2.321660	6.936830	-0.000350
-2.321280	6.935720	0.001080
-2.320690	6.934020	0.002500
-2.320490	6.933450	0.003930
-2.320000	6.932030	0.005350
-2.319740	6.931300	0.006780
-2.319340	6.930130	0.008200
-2.319060	6.929330	0.009620
-2.318770	6.928510	0.011050
-2.318500	6.927740	0.012470
-2.318220	6.926970	0.013890
-2.318080	6.926580	0.015320
-2.317760	6.925660	0.016740
-2.317660	6.925420	0.018160
-2.317480	6.924910	0.019580
-2.317340	6.924530	0.021010
-2.317190	6.924130	0.022430
-2.317040	6.923740	0.023860
-2.316930	6.923420	0.025280
-2.316890	6.923350	0.026700
-2.316800	6.923130	0.028130
-2.316700	6.922860	0.029550
-2.316610	6.922640	0.030970
-2.316580	6.922610	0.032400
-2.316580	6.922640	0.033820
-2.316510	6.922470	0.035240
-2.316520	6.922540	0.036670
-2.316500	6.922540	0.038090
-2.316560	6.922750	0.039520
-2.316580	6.922840	0.040940
-2.316590	6.922910	0.042370
-2.316660	6.923180	0.043790
-2.316780	6.923560	0.045220
-2.316990	6.924300	0.048070
-2.317080	6.924580	0.049500
-2.317220	6.925040	0.050920
-2.317280	6.925280	0.052350
-2.317450	6.925840	0.053780
-2.317650	6.926470	0.055210
-2.317840	6.927080	0.056640
-2.318020	6.927640	0.058070
-2.318290	6.928500	0.059510
-2.318390	6.928840	0.060930
-2.318820	6.930170	0.062370
-2.319100	6.931060	0.063810
-2.319420	6.932040	0.065240
-2.319700	6.932920	0.066680
-2.320070	6.934060	0.068110
-2.320500	6.935390	0.069550
-2.321030	6.937010	0.071000
-2.321370	6.938090	0.072430
-2.321850	6.939550	0.073880
-2.322350	6.941090	0.075320
-2.323040	6.943210	0.076770
-2.323760	6.945390	0.078220
-2.324440	6.947460	0.079680
-2.325280	6.950020	0.081140
-2.325890	6.951880	0.082590
-2.334650	6.978260	-0.063820
-2.334750	6.978570	-0.062390
-2.334670	6.978400	-0.060950
-2.334620	6.978280	-0.059520
-2.335170	6.979960	-0.058090
-2.337540	6.987090	-0.056720
-2.340020	6.994560	-0.055340
-2.340670	6.996540	-0.053910
-2.340580	6.996290	-0.052470
-2.340930	6.997400	-0.051040
-2.340690	6.996720	-0.049600
-2.340940	6.997500	-0.048170
-2.340710	6.996870	-0.046720
-2.340800	6.997180	-0.045290
-2.341060	6.997970	-0.043850
-2.340990	6.997810	-0.042410
-2.340740	6.997110	-0.040970
-2.340810	6.997370	-0.039530
-2.340900	6.997680	-0.038100
-2.340680	6.997060	-0.036650
-2.340570	6.996760	-0.035210
-2.340430	6.996390	-0.033770
-2.340460	6.996530	-0.032340
-2.341040	6.998290	-0.030900
-2.340830	6.997700	-0.029460
-2.341060	6.998410	-0.028030
-2.340580	6.997060	-0.025140
-2.340850	6.997900	-0.023710
-2.340550	6.997030	-0.022270
-2.340290	6.996300	-0.020830
-2.340530	6.997070	-0.019390
-2.340520	6.997070	-0.017950
-2.339790	6.994930	-0.016510
-2.337120	6.987010	-0.015050
-2.329950	6.965600	-0.013570
-2.326750	6.956080	-0.012120
-2.325410	6.952110	-0.010690
-2.324380	6.949090	-0.009250
-2.323630	6.946880	-0.007820
-2.322890	6.944710	-0.006390
-2.322180	6.942640	-0.004960
-2.321410	6.940370	-0.003530
-2.320840	6.938720	-0.002110
-2.320360	6.937330	-0.000680
-2.319960	6.936160	0.000750
-2.319550	6.934980	0.002170
-2.319150	6.933830	0.003600
-2.318810	6.932870	0.005020
-2.318390	6.931660	0.006440
-2.318100	6.930810	0.007870
-2.317760	6.929840	0.009290
-2.317580	6.929340	0.010710
-2.317260	6.928450	0.012140
-2.317000	6.927700	0.013560
-2.316830	6.927230	0.014990
-2.316560	6.926460	0.016410
-2.316400	6.926040	0.017830
-2.316320	6.925820	0.019260
-2.316070	6.925120	0.020680
-2.315910	6.924690	0.022100
-2.315810	6.924450	0.023520
-2.315700	6.924160	0.024950
-2.315550	6.923750	0.026370
-2.315500	6.923620	0.027790
-2.315400	6.923370	0.029220
-2.315330	6.923210	0.030640
-2.315330	6.923250	0.032060
-2.315240	6.923030	0.033490
-2.315230	6.923050	0.034910
-2.315250	6.923130	0.036340
-2.315230	6.923130	0.037760
-2.315300	6.923360	0.039190
-2.315280	6.923340	0.040610
-2.315280	6.923390	0.042040
-2.315330	6.923580	0.043460
-2.315390	6.923800	0.044890
-2.315560	6.924360	0.046310
-2.315620	6.924580	0.047740
-2.315740	6.924970	0.049160
-2.315860	6.925370	0.050590
-2.315950	6.925700	0.052020
-2.316140	6.926290	0.053450
-2.316380	6.927060	0.054880
-2.316540	6.927560	0.056310
-2.316820	6.928450	0.057740
-2.316950	6.928880	0.059170
-2.317120	6.929440	0.060590
-2.317460	6.930480	0.062030
-2.317800	6.931550	0.063460
-2.318070	6.932390	0.064900
-2.318390	6.933400	0.066330
-2.318740	6.934500	0.067770
-2.319220	6.935950	0.069210
-2.319570	6.937050	0.070640
-2.320100	6.938670	0.072090
-2.320670	6.940410	0.073530
-2.321020	6.941520	0.074970
-2.321680	6.943520	0.076420
-2.322470	6.945920	0.077880
-2.323010	6.947600	0.079320
-2.323910	6.950310	0.080780
-2.324870	6.953220	0.082250
-2.333610	6.979650	-0.063310
-2.333530	6.979460	-0.061870
-2.333690	6.979960	-0.060440
-2.333610	6.979790	-0.059000
-2.334530	6.982570	-0.057590
-2.337230	6.990690	-0.056220
-2.339150	6.996460	-0.054820
-2.339540	6.997660	-0.053390
-2.339740	6.998320	-0.051960
-2.339870	6.998730	-0.050520
-2.339760	6.998470	-0.049080
-2.340060	6.999400	-0.047650
-2.339920	6.999030	-0.046210
-2.339650	6.998250	-0.044760
-2.339590	6.998110	-0.043320
-2.339720	6.998560	-0.041890
-2.339550	6.998090	-0.040450
-2.339900	6.999150	-0.039010
-2.340110	6.999840	-0.037580
-2.339460	6.997930	-0.036130
-2.339490	6.998060	-0.034690
-2.339890	6.999320	-0.033260
-2.339600	6.998480	-0.031820
-2.339380	6.997860	-0.030380
-2.339580	6.998500	-0.028940
-2.339700	6.998900	-0.027500
-2.339200	6.997460	-0.026060
-2.339740	6.999100	-0.024620
-2.340020	6.999990	-0.023190
-2.339520	6.998530	-0.021740
-2.339380	6.998150	-0.020300
-2.339390	6.998230	-0.018860
-2.339320	6.998080	-0.017420
-2.338600	6.995960	-0.015980
-2.334800	6.984620	-0.014520
-2.327700	6.963440	-0.013040
-2.325130	6.955800	-0.011600
-2.323820	6.951920	-0.010160
-2.322950	6.949370	-0.008730
-2.322080	6.946810	-0.007300
-2.321320	6.944580	-0.005870
-2.320670	6.942680	-0.004440
-2.320040	6.940830	-0.003010
-2.319460	6.939130	-0.001590
-2.318870	6.937400	-0.000160
-2.318470	6.936270	0.001270
-2.318030	6.934980	0.002690
-2.317620	6.933810	0.004120
-2.317300	6.932880	0.005540
-2.317000	6.932020	0.006970
-2.316630	6.930960	0.008390
-2.316430	6.930390	0.009810
-2.316140	6.929590	0.011240
-2.315840	6.928740	0.012660
-2.315640	6.928160	0.014080
-2.315380	6.927450	0.015500
-2.315210	6.926960	0.016930
-2.315060	6.926560	0.018350
-2.314860	6.926000	0.019770
-2.314740	6.925700	0.021200
-2.314540	6.925140	0.022620
-2.314470	6.924970	0.024050
-2.314370	6.924710	0.025470
-2.314240	6.924350	0.026900
-2.314190	6.924260	0.028320
-2.314120	6.924090	0.029750
-2.314060	6.923940	0.031170
-2.314040	6.923930	0.032590
-2.313940	6.923660	0.034020
-2.313960	6.923770	0.035440
-2.313940	6.923750	0.036860
-2.313990	6.923940	0.038290
-2.314000	6.924020	0.039710
-2.313960	6.923940	0.041130
-2.313980	6.924050	0.042560
-2.314070	6.924340	0.043980
-2.314180	6.924730	0.045410
-2.314300	6.925140	0.046830
-2.314370	6.925360	0.048260
-2.314440	6.925640	0.049680
-2.314690	6.926420	0.051110
-2.314800	6.926780	0.052540
-2.314870	6.927020	0.053970
-2.315090	6.927750	0.055400
-2.315300	6.928420	0.056830
-2.315510	6.929060	0.058260
-2.315800	6.929990	0.059690
-2.315950	6.930470	0.061120
-2.316260	6.931430	0.062560
-2.316590	6.932460	0.063990
-2.316940	6.933550	0.065430
-2.317270	6.934600	0.066870
-2.317670	6.935820	0.068300
-2.317940	6.936690	0.069740
-2.318510	6.938430	0.071180
-2.318890	6.939590	0.072620
-2.319440	6.941290	0.074070
-2.320020	6.943070	0.075520
-2.320560	6.944710	0.076960
-2.321310	6.947020	0.078420
-2.322190	6.949670	0.079880
-2.323060	6.952310	0.081340
-2.322890	6.951870	0.082760
-2.332620	6.981260	-0.063210
-2.332490	6.980910	-0.061770
-2.332540	6.981100	-0.060340
-2.332640	6.981440	-0.058900
-2.333550	6.984220	-0.057490
-2.336300	6.992490	-0.056120
-2.337690	6.996700	-0.054720
-2.338200	6.998260	-0.053290
-2.338440	6.999020	-0.051860
-2.338760	7.000020	-0.050420
-2.338670	6.999790	-0.048980
-2.338640	6.999750	-0.047540
-2.338640	6.999790	-0.046100
-2.338510	6.999440	-0.044660
-2.338600	6.999760	-0.043220
-2.338690	7.000070	-0.041780
-2.338700	7.000130	-0.040340
-2.338430	6.999380	-0.038900
-2.338500	6.999630	-0.037460
-2.338500	6.999660	-0.036030
-2.338420	6.999480	-0.034590
-2.338810	7.000680	-0.033150
-2.338620	7.000150	-0.031710
-2.338000	6.998350	-0.030270
-2.338290	6.999260	-0.028830
-2.338310	6.999370	-0.027400
-2.338470	6.999880	-0.025960
-2.338110	6.998840	-0.024520
-2.338570	7.000260	-0.023080
-2.338210	6.999220	-0.021640
-2.338430	6.999940	-0.020200
-2.338160	6.999180	-0.018760
-2.337980	6.998670	-0.017320
-2.337590	6.997540	-0.015880
-2.333740	6.986090	-0.014410
-2.326840	6.965480	-0.012940
-2.323840	6.956520	-0.011490
-2.322550	6.952710	-0.010060
-2.321490	6.949590	-0.008620
-2.320810	6.947590	-0.007190
-2.320060	6.945400	-0.005760
-2.319340	6.943270	-0.004330
-2.318740	6.941540	-0.002900
-2.318180	6.939880	-0.001480
-2.317580	6.938130	-0.000050
-2.317090	6.936730	0.001380
-2.316830	6.935970	0.002800
-2.316450	6.934900	0.004230
-2.315930	6.933380	0.005660
-2.315760	6.932920	0.007080
-2.315430	6.931970	0.008500
-2.315070	6.930930	0.009930
-2.314800	6.930170	0.011350
-2.314490	6.929280	0.012770
-2.314260	6.928640	0.014190
-2.314110	6.928240	0.015620
-2.313920	6.927690	0.017040
-2.313770	6.927290	0.018460
-2.313630	6.926910	0.019880
-2.313480	6.926530	0.021300
-2.313220	6.925760	0.022720
-2.313180	6.925710	0.024150
-2.313000	6.925220	0.025570
-2.312930	6.925040	0.026990
-2.312840	6.924800	0.028420
-2.312810	6.924760	0.029840
-2.312710	6.924520	0.031270
-2.312710	6.924550	0.032690
-2.312660	6.924450	0.034110
-2.312650	6.924470	0.035540
-2.312610	6.924370	0.036960
-2.312650	6.924530	0.038390
-2.312710	6.924760	0.039810
-2.312740	6.924880	0.041240
-2.312760	6.924990	0.042660
-2.312790	6.925120	0.044080
-2.312820	6.925250	0.045510
-2.312980	6.925800	0.046930
-2.313010	6.925920	0.048360
-2.313210	6.926570	0.049790
-2.313340	6.926990	0.051210
-2.313440	6.927340	0.052640
-2.313630	6.927940	0.054070
-2.313780	6.928430	0.055500
-2.314000	6.929120	0.056930
-2.314220	6.929840	0.058360
-2.314410	6.930450	0.059790
-2.314770	6.931580	0.061220
-2.315060	6.932480	0.062660
-2.315390	6.933510	0.064090
-2.315600	6.934170	0.065520
-2.316020	6.935470	0.066960
-2.316250	6.936210	0.068400
-2.316740	6.937720	0.069840
-2.317250	6.939280	0.071280
-2.317690	6.940660	0.072720
-2.318240	6.942350	0.074170
-2.318830	6.944160	0.075620
-2.319510	6.946240	0.077070
-2.320100	6.948020	0.078520
-2.320950	6.950610	0.079970
-2.321890	6.953500	0.081440
-2.320690	6.949930	0.082830
-2.331720	6.983120	-0.063150
-2.331660	6.982990	-0.061720
-2.331600	6.982830	-0.060280
-2.331550	6.982730	-0.058840
-2.332890	6.986790	-0.057440
-2.335280	6.994000	-0.056060
-2.337030	6.999280	-0.054660
-2.337090	6.999480	-0.053230
-2.337300	7.000170	-0.051790
-2.337300	7.000190	-0.050350
-2.337170	6.999860	-0.048910
-2.337490	7.000840	-0.047480
-2.337210	7.000070	-0.046030
-2.337390	7.000630	-0.044600
-2.337360	7.000590	-0.043160
-2.337140	6.999960	-0.041710
-2.336900	6.999300	-0.040270
-2.337040	6.999760	-0.038830
-2.337630	7.001580	-0.037400
-2.337130	7.000120	-0.035960
-2.337540	7.001380	-0.034520
-2.337250	7.000570	-0.033080
-2.337220	7.000510	-0.031640
-2.337390	7.001070	-0.030200
-2.337470	7.001330	-0.028760
-2.337370	7.001090	-0.027320
-2.337280	7.000860	-0.025880
-2.337320	7.001020	-0.024440
-2.337300	7.000990	-0.023000
-2.336890	6.999810	-0.021550
-2.337260	7.000960	-0.020120
-2.337220	7.000900	-0.018680
-2.337060	7.000440	-0.017230
-2.336290	6.998180	-0.015790
-2.333320	6.989340	-0.014330
-2.326240	6.968180	-0.012860
-2.323050	6.958650	-0.011410
-2.321250	6.953330	-0.009970
-2.320350	6.950660	-0.008540
-2.319440	6.947970	-0.007110
-2.318690	6.945780	-0.005680
-2.318120	6.944100	-0.004250
-2.317440	6.942110	-0.002820
-2.316940	6.940660	-0.001390
-2.316470	6.939300	0.000040
-2.315900	6.937640	0.001460
-2.315600	6.936770	0.002890
-2.315040	6.935140	0.004320
-2.314730	6.934260	0.005750
-2.314490	6.933580	0.007170
-2.314180	6.932700	0.008600
-2.313740	6.931430	0.010020
-2.313560	6.930910	0.011450
-2.313260	6.930050	0.012880
-2.313080	6.929580	0.014300
-2.312870	6.928980	0.015730
-2.312630	6.928290	0.017150
-2.312390	6.927620	0.018570
-2.312350	6.927540	0.019990
-2.312120	6.926900	0.021420
-2.311990	6.926540	0.022840
-2.311800	6.926020	0.024260
-2.311810	6.926090	0.025690
-2.311650	6.925650	0.027110
-2.311580	6.925480	0.028530
-2.311470	6.925200	0.029950
-2.311440	6.925160	0.031380
-2.311380	6.925020	0.032800
-2.311450	6.925260	0.034220
-2.311400	6.925150	0.035650
-2.311400	6.925190	0.037070
-2.311400	6.925240	0.038500
-2.311400	6.925290	0.039920
-2.311460	6.925500	0.041350
-2.311500	6.925670	0.042770
-2.311590	6.925970	0.044200
-2.311620	6.926110	0.045620
-2.311720	6.926450	0.047050
-2.311850	6.926880	0.048480
-2.311940	6.927190	0.049910
-2.312100	6.927730	0.051330
-2.312300	6.928360	0.052760
-2.312480	6.928950	0.054190
-2.312600	6.929330	0.055620
-2.312820	6.930030	0.057050
-2.313090	6.930890	0.058480
-2.313240	6.931380	0.059910
-2.313470	6.932100	0.061350
-2.313880	6.933380	0.062780
-2.314100	6.934070	0.064220
-2.314460	6.935200	0.065650
-2.314810	6.936300	0.067090
-2.315190	6.937480	0.068530
-2.315580	6.938680	0.069970
-2.316030	6.940070	0.071410
-2.316670	6.942020	0.072860
-2.317270	6.943880	0.074310
-2.317750	6.945340	0.075760
-2.318430	6.947420	0.077210
-2.319010	6.949220	0.078660
-2.319940	6.952030	0.080120
-2.320530	6.953840	0.081570
-2.330700	6.984600	-0.062170
-2.330620	6.984400	-0.060730
-2.330640	6.984500	-0.059300
-2.331070	6.985830	-0.057870
-2.333210	6.992260	-0.056490
-2.335420	6.998940	-0.055100
-2.336060	7.000890	-0.053680
-2.336000	7.000780	-0.052240
-2.336140	7.001230	-0.050800
-2.336410	7.002060	-0.049370
-2.336170	7.001400	-0.047930
-2.336190	7.001510	-0.046490
-2.336330	7.001960	-0.045050
-2.336260	7.001790	-0.043610
-2.336080	7.001300	-0.042170
-2.336300	7.002010	-0.040740
-2.336470	7.002560	-0.039300
-2.336040	7.001290	-0.037860
-2.336290	7.002090	-0.036420
-2.336480	7.002720	-0.034980
-2.336230	7.002010	-0.033540
-2.336290	7.002230	-0.032100
-2.336050	7.001530	-0.030660
-2.336420	7.002710	-0.029230
-2.336180	7.002030	-0.027790
-2.336290	7.002400	-0.026350
-2.336080	7.001800	-0.024910
-2.336130	7.001990	-0.023470
-2.336020	7.001720	-0.022030
-2.335970	7.001610	-0.020590
-2.335690	7.000790	-0.019150
-2.335940	7.001600	-0.017710
-2.335660	7.000810	-0.016270
-2.334750	6.998100	-0.014820
-2.329030	6.981020	-0.013350
-2.323250	6.963750	-0.011890
-2.320760	6.956320	-0.010440
-2.319770	6.953400	-0.009010
-2.318670	6.950140	-0.007570
-2.317800	6.947580	-0.006140
-2.317090	6.945490	-0.004710
-2.316620	6.944140	-0.003290
-2.315910	6.942030	-0.001860
-2.315520	6.940910	-0.000430
-2.314890	6.939070	0.001000
-2.314440	6.937750	0.002420
-2.314150	6.936930	0.003850
-2.313740	6.935740	0.005270
-2.313330	6.934580	0.006700
-2.313130	6.934000	0.008120
-2.312790	6.933040	0.009550
-2.312390	6.931860	0.010970
-2.312230	6.931430	0.012400
-2.311970	6.930690	0.013820
-2.311720	6.929980	0.015240
-2.311510	6.929410	0.016670
-2.311340	6.928940	0.018090
-2.311150	6.928400	0.019510
-2.310960	6.927870	0.020940
-2.310790	6.927420	0.022360
-2.310740	6.927310	0.023790
-2.310520	6.926680	0.025210
-2.310480	6.926600	0.026630
-2.310350	6.926290	0.029470
-2.310260	6.926070	0.030890
-2.310240	6.926040	0.032320
-2.310180	6.925920	0.033740
-2.310140	6.925850	0.035160
-2.310140	6.925890	0.036580
-2.310140	6.925930	0.038010
-2.310150	6.926000	0.039430
-2.310180	6.926140	0.040850
-2.310320	6.926590	0.042280
-2.310330	6.926650	0.043710
-2.310400	6.926910	0.045130
-2.310500	6.927250	0.046560
-2.310560	6.927470	0.047980
-2.310680	6.927870	0.049410
-2.310760	6.928150	0.050840
-2.310930	6.928700	0.052270
-2.311070	6.929170	0.053700
-2.311290	6.929870	0.055130
-2.311530	6.930640	0.056560
-2.311610	6.930910	0.057990
-2.311970	6.932030	0.059420
-2.312150	6.932620	0.060850
-2.312390	6.933370	0.062290
-2.312750	6.934500	0.063720
-2.313160	6.935760	0.065160
-2.313400	6.936530	0.066590
-2.313870	6.937970	0.068040
-2.314390	6.939570	0.069480
-2.314690	6.940520	0.070920
-2.315240	6.942200	0.072360
-2.315750	6.943780	0.073800
-2.316350	6.945610	0.075250
-2.316950	6.947470	0.076700
-2.317700	6.949760	0.078150
-2.318260	6.951470	0.079590
-2.319220	6.954400	0.081060
-2.329880	6.986770	-0.062340
-2.329660	6.986150	-0.060900
-2.329710	6.986340	-0.059470
-2.330120	6.987590	-0.058040
-2.331970	6.993180	-0.056650
-2.334340	7.000320	-0.055270
-2.334950	7.002210	-0.053850
-2.335430	7.003680	-0.052420
-2.334570	7.001150	-0.050960
-2.334910	7.002220	-0.049530
-2.334740	7.001740	-0.048090
-2.334820	7.002040	-0.046650
-2.335250	7.003370	-0.045220
-2.334700	7.001770	-0.043770
-2.334870	7.002320	-0.042330
-2.335310	7.003680	-0.040900
-2.335170	7.003300	-0.039460
-2.335440	7.004130	-0.038020
-2.335200	7.003470	-0.036580
-2.334660	7.001900	-0.035130
-2.334710	7.002080	-0.033690
-2.334970	7.002890	-0.032260
-2.334900	7.002720	-0.030820
-2.335010	7.003110	-0.029380
-2.334680	7.002160	-0.027930
-2.334650	7.002120	-0.026490
-2.334980	7.003140	-0.025060
-2.335080	7.003470	-0.023620
-2.334830	7.002770	-0.022180
-2.334780	7.002670	-0.020740
-2.334860	7.002950	-0.019300
-2.334890	7.003090	-0.017860
-2.334750	7.002710	-0.016420
-2.333940	7.000310	-0.014980
-2.330620	6.990420	-0.013520
-2.323290	6.968470	-0.012050
-2.319710	6.957790	-0.010600
-2.318800	6.955110	-0.009160
-2.317550	6.951390	-0.007730
-2.316790	6.949150	-0.006300
-2.315360	6.944950	-0.003440
-2.314710	6.943040	-0.002010
-2.314260	6.941730	-0.000580
-2.313760	6.940260	0.000840
-2.313310	6.938960	0.002270
-2.312940	6.937910	0.003700
-2.312440	6.936440	0.005120
-2.312220	6.935820	0.006550
-2.311760	6.934500	0.007970
-2.311490	6.933720	0.009400
-2.311140	6.932720	0.010820
-2.310890	6.932000	0.012250
-2.310690	6.931440	0.013670
-2.310470	6.930840	0.015100
-2.310250	6.930220	0.016520
-2.310030	6.929590	0.017940
-2.309870	6.929150	0.019360
-2.309810	6.929030	0.020790
-2.309530	6.928230	0.022210
-2.309440	6.928000	0.023630
-2.309310	6.927640	0.025050
-2.309250	6.927500	0.026480
-2.309090	6.927070	0.027900
-2.309030	6.926920	0.029320
-2.309000	6.926880	0.030750
-2.309010	6.926950	0.032170
-2.308920	6.926730	0.033590
-2.308840	6.926520	0.035020
-2.308930	6.926840	0.036440
-2.308910	6.926820	0.037870
-2.308940	6.926960	0.039290
-2.308930	6.926950	0.040720
-2.308970	6.927130	0.042140
-2.309080	6.927500	0.043570
-2.309190	6.927860	0.045000
-2.309250	6.928080	0.046420
-2.309290	6.928260	0.047850
-2.309480	6.928870	0.049280
-2.309560	6.929150	0.050700
-2.309700	6.929620	0.052130
-2.309810	6.929990	0.053560
-2.310090	6.930850	0.054990
-2.310280	6.931470	0.056420
-2.310520	6.932240	0.057850
-2.310690	6.932800	0.059280
-2.311020	6.933830	0.060720
-2.311200	6.934400	0.062150
-2.311580	6.935570	0.063580
-2.311900	6.936570	0.065020
-2.312210	6.937550	0.066460
-2.312630	6.938850	0.067890
-2.313160	6.940490	0.069340
-2.313500	6.941540	0.070770
-2.314010	6.943130	0.072220
-2.314570	6.944850	0.073660
-2.315010	6.946190	0.075110
-2.315890	6.948890	0.076560
-2.316520	6.950810	0.078010
-2.317250	6.953040	0.079470
-2.317950	6.955180	0.080920
-2.328910	6.988200	-0.061830
-2.328890	6.988160	-0.060400
-2.328790	6.987900	-0.058960
-2.329520	6.990140	-0.057540
-2.331990	6.997610	-0.056160
-2.333400	7.001870	-0.054750
-2.333550	7.002360	-0.053320
-2.334130	7.004140	-0.051890
-2.333990	7.003780	-0.050450
-2.333910	7.003570	-0.049010
-2.333970	7.003790	-0.047570
-2.334030	7.004020	-0.046130
-2.333820	7.003440	-0.044690
-2.334110	7.004340	-0.043260
-2.333720	7.003210	-0.041810
-2.334100	7.004380	-0.040380
-2.333780	7.003470	-0.038930
-2.334260	7.004950	-0.037500
-2.333850	7.003760	-0.036050
-2.334020	7.004310	-0.034620
-2.333960	7.004180	-0.033180
-2.333510	7.002880	-0.031730
-2.333980	7.004330	-0.030300
-2.333590	7.003190	-0.028850
-2.333340	7.002500	-0.027410
-2.333560	7.003190	-0.025970
-2.333650	7.003520	-0.024530
-2.333720	7.003760	-0.023090
-2.333890	7.004300	-0.021660
-2.333580	7.003430	-0.020210
-2.333680	7.003770	-0.018770
-2.333160	7.002250	-0.017330
-2.333400	7.003000	-0.015890
-2.332650	7.000800	-0.014450
-2.328980	6.989840	-0.012990
-2.321340	6.966970	-0.011520
-2.318550	6.958620	-0.010070
-2.317080	6.954250	-0.008640
-2.316300	6.951960	-0.007210
-2.315630	6.950000	-0.005780
-2.314630	6.947050	-0.004350
-2.314100	6.945470	-0.002920
-2.313430	6.943520	-0.001490
-2.312980	6.942200	-0.000060
-2.312440	6.940620	0.001370
-2.312090	6.939620	0.002790
-2.311620	6.938240	0.004220
-2.311190	6.936990	0.005640
-2.310840	6.936000	0.007070
-2.310560	6.935210	0.008490
-2.310300	6.934460	0.009920
-2.309940	6.933430	0.011340
-2.309680	6.932690	0.012770
-2.309490	6.932160	0.014190
-2.309170	6.931220	0.015620
-2.309020	6.930820	0.017040
-2.308860	6.930390	0.018460
-2.308700	6.929960	0.019890
-2.308440	6.929220	0.021310
-2.308360	6.929010	0.022730
-2.308210	6.928610	0.024160
-2.308130	6.928400	0.025580
-2.308030	6.928160	0.027010
-2.307930	6.927900	0.028430
-2.307830	6.927640	0.029850
-2.307820	6.927650	0.031280
-2.307770	6.927520	0.032700
-2.307720	6.927420	0.034120
-2.307640	6.927240	0.035550
-2.307680	6.927400	0.036970
-2.307710	6.927520	0.038400
-2.307690	6.927490	0.039820
-2.307750	6.927730	0.041250
-2.307790	6.927880	0.042670
-2.308010	6.928600	0.044100
-2.307990	6.928590	0.045530
-2.308070	6.928860	0.046960
-2.308210	6.929330	0.048380
-2.308260	6.929520	0.049810
-2.308480	6.930230	0.051240
-2.308620	6.930680	0.052670
-2.308760	6.931130	0.054100
-2.309070	6.932100	0.055530
-2.309190	6.932500	0.056960
-2.309410	6.933200	0.058390
-2.309570	6.933750	0.059820
-2.309940	6.934890	0.061260
-2.310240	6.935840	0.062690
-2.310510	6.936670	0.064130
-2.310900	6.937900	0.065560
-2.311250	6.938980	0.067000
-2.311630	6.940160	0.068440
-2.312120	6.941670	0.069880
-2.312640	6.943280	0.071330
-2.313110	6.944730	0.072770
-2.313650	6.946400	0.074210
-2.314360	6.948560	0.075660
-2.314910	6.950270	0.077110
-2.315850	6.953120	0.078570
-2.316490	6.955080	0.080020
-2.327980	6.989840	-0.061930
-2.328070	6.990170	-0.060500
-2.328130	6.990370	-0.059070
-2.328550	6.991690	-0.057640
