-3.456520	5.850750	0.044580
-3.456940	5.851470	0.045920
-3.457300	5.852110	0.047250
-3.457840	5.853050	0.048580
-3.458210	5.853700	0.049910
-3.458800	5.854720	0.051250
-3.459150	5.855330	0.052580
-3.459740	5.856350	0.053910
-3.460610	5.857850	0.055250
-3.461230	5.858930	0.056590
-3.461920	5.860130	0.057930
-3.462920	5.861840	0.059280
-3.464190	5.864000	0.060630
-3.465470	5.866200	0.061980
-3.467330	5.869370	0.063340
-3.471880	5.877090	0.064760
-3.479390	5.889830	0.066240
-3.486320	5.901580	0.067710
-3.488520	5.905320	0.069090
-3.489340	5.906740	0.070440
-3.489740	5.907440	0.071790
-3.490290	5.908380	0.073140
-3.491050	5.909700	0.074490
-3.493260	5.913470	0.075880
-3.490150	5.909200	-0.017330
-3.489590	5.908270	-0.015990
-3.489550	5.908240	-0.014650
-3.489650	5.908420	-0.013320
-3.488800	5.907010	-0.011980
-3.487120	5.904190	-0.010630
-3.481650	5.894960	-0.009280
-3.473210	5.880690	-0.007930
-3.468210	5.872250	-0.006590
-3.465750	5.868110	-0.005250
-3.464130	5.865410	-0.003920
-3.462990	5.863500	-0.002590
-3.462160	5.862110	-0.001260
-3.461110	5.860360	0.000070
-3.460440	5.859250	0.001390
-3.459670	5.857970	0.002720
-3.458990	5.856850	0.004050
-3.458560	5.856140	0.005370
-3.457800	5.854880	0.006700
-3.457230	5.853940	0.008020
-3.456950	5.853490	0.009350
-3.456750	5.853180	0.010670
-3.456290	5.852420	0.012000
-3.455910	5.851790	0.013320
-3.455640	5.851360	0.014640
-3.455320	5.850840	0.015970
-3.455140	5.850560	0.017290
-3.454860	5.850120	0.018610
-3.454900	5.850210	0.019940
-3.454590	5.849700	0.021260
-3.454550	5.849670	0.022590
-3.454460	5.849550	0.023910
-3.454320	5.849320	0.025240
-3.454160	5.849080	0.026560
-3.454160	5.849100	0.027880
-3.454420	5.849570	0.029210
-3.454290	5.849380	0.030530
-3.454350	5.849500	0.031860
-3.454510	5.849790	0.033190
-3.454390	5.849620	0.034510
-3.454500	5.849820	0.035840
-3.454880	5.850480	0.037170
-3.455020	5.850750	0.038490
-3.455110	5.850940	0.039820
-3.455290	5.851270	0.041150
-3.455740	5.852050	0.042480
-3.455970	5.852460	0.043810
-3.456170	5.852820	0.045140
-3.456670	5.853690	0.046470
-3.457090	5.854430	0.047800
-3.457520	5.855180	0.049140
-3.457890	5.855820	0.050470
-3.458560	5.856990	0.051800
-3.459240	5.858160	0.053140
-3.459740	5.859040	0.054470
-3.460430	5.860220	0.055810
-3.461550	5.862150	0.057160
-3.462160	5.863210	0.058500
-3.463360	5.865250	0.059840
-3.464900	5.867900	0.061200
-3.467710	5.872670	0.062580
-3.473110	5.881840	0.064010
-3.481080	5.895370	0.065500
-3.486270	5.904170	0.066930
-3.487920	5.906990	0.068300
-3.488600	5.908170	0.069660
-3.489040	5.908930	0.071010
-3.489320	5.909440	0.072350
-3.489600	5.909930	0.073700
-3.490240	5.911040	0.075050
-3.493030	5.915790	0.076450
-3.488650	5.909320	-0.018630
-3.488860	5.909690	-0.017300
-3.489100	5.910120	-0.015960
-3.489060	5.910070	-0.014620
-3.488090	5.908450	-0.013280
-3.487990	5.908290	-0.011940
-3.487480	5.907460	-0.010600
-3.485250	5.903700	-0.009260
-3.479300	5.893650	-0.007910
-3.471490	5.880450	-0.006560
-3.466820	5.872560	-0.005220
-3.464580	5.868800	-0.003890
-3.462740	5.865720	-0.002550
-3.461810	5.864170	-0.001220
-3.460760	5.862420	0.000110
-3.459940	5.861050	0.001430
-3.459340	5.860060	0.002760
-3.458510	5.858680	0.004090
-3.458050	5.857930	0.005420
-3.457540	5.857100	0.006740
-3.456990	5.856190	0.008070
-3.456520	5.855410	0.009400
-3.456200	5.854900	0.010720
-3.455700	5.854080	0.012050
-3.455590	5.853910	0.013370
-3.455060	5.853030	0.014690
-3.454790	5.852600	0.016020
-3.454540	5.852190	0.017340
-3.454440	5.852030	0.018670
-3.454160	5.851590	0.019990
-3.454200	5.851670	0.021320
-3.454030	5.851410	0.022640
-3.453890	5.851190	0.023960
-3.453850	5.851150	0.025290
-3.453860	5.851200	0.026620
-3.453710	5.850960	0.027940
-3.453850	5.851230	0.029270
-3.453640	5.850890	0.030590
-3.453790	5.851180	0.031920
-3.453890	5.851360	0.033250
-3.454240	5.851980	0.034580
-3.454210	5.851950	0.035900
-3.454350	5.852210	0.037230
-3.454510	5.852520	0.038560
-3.454650	5.852780	0.039890
-3.455070	5.853510	0.041220
-3.455090	5.853570	0.042550
-3.455670	5.854580	0.043880
-3.455850	5.854900	0.045210
-3.456270	5.855630	0.046540
-3.456760	5.856500	0.047880
-3.457190	5.857240	0.049210
-3.457810	5.858320	0.050550
-3.458200	5.859010	0.051880
-3.458920	5.860250	0.053220
-3.459600	5.861420	0.054560
-3.460520	5.863000	0.055900
-3.461330	5.864410	0.057240
-3.462580	5.866540	0.058590
-3.464200	5.869310	0.059950
-3.466860	5.873840	0.061330
-3.472060	5.882670	0.062750
-3.479820	5.895850	0.064230
-3.484560	5.903900	0.065650
-3.486620	5.907410	0.067030
-3.487650	5.909180	0.068390
-3.488240	5.910210	0.069740
-3.488200	5.910170	0.071080
-3.488130	5.910070	0.072420
-3.488840	5.911290	0.073770
-3.489540	5.912500	0.075130
-3.492170	5.916990	0.076530
-3.488430	5.911630	-0.017310
-3.487760	5.910510	-0.015970
-3.487980	5.910920	-0.014630
-3.487520	5.910150	-0.013290
-3.487750	5.910560	-0.011950
-3.486930	5.909200	-0.010610
-3.486560	5.908600	-0.009270
-3.484950	5.905910	-0.007930
-3.478870	5.895630	-0.006580
-3.471280	5.882780	-0.005230
-3.465740	5.873430	-0.003900
-3.463430	5.869530	-0.002560
-3.461960	5.867070	-0.001230
-3.460890	5.865280	0.000100
-3.460190	5.864130	0.001420
-3.459140	5.862370	0.002750
-3.458430	5.861190	0.004080
-3.457940	5.860380	0.005400
-3.457220	5.859180	0.006730
-3.456780	5.858460	0.008060
-3.456280	5.857640	0.009380
-3.455850	5.856940	0.010710
-3.455520	5.856400	0.012030
-3.455010	5.855560	0.013360
-3.454580	5.854860	0.014680
-3.454460	5.854680	0.016010
-3.454090	5.854080	0.017330
-3.453940	5.853840	0.018660
-3.453750	5.853550	0.019980
-3.453570	5.853270	0.021310
-3.453610	5.853370	0.022640
-3.453460	5.853130	0.023960
-3.453380	5.853020	0.025290
-3.453350	5.852980	0.026610
-3.453170	5.852700	0.027940
-3.453360	5.853050	0.029270
-3.453240	5.852880	0.030590
-3.453280	5.852970	0.031920
-3.453450	5.853280	0.033250
-3.453590	5.853550	0.034570
-3.453760	5.853850	0.035900
-3.453880	5.854080	0.037230
-3.454050	5.854390	0.038550
-3.454340	5.854920	0.039880
-3.454520	5.855230	0.041210
-3.454930	5.855960	0.042540
-3.455090	5.856250	0.043870
-3.455530	5.857020	0.045200
-3.455910	5.857690	0.046530
-3.456470	5.858660	0.047870
-3.456900	5.859410	0.049200
-3.457460	5.860390	0.050540
-3.458120	5.861530	0.051870
-3.458840	5.862770	0.053210
-3.459430	5.863800	0.054550
-3.460560	5.865740	0.055900
-3.461660	5.867630	0.057240
-3.463130	5.870140	0.058600
-3.466270	5.875480	0.059980
-3.471290	5.884020	0.061400
-3.478020	5.895450	0.062860
-3.483670	5.905040	0.064300
-3.485920	5.908890	0.065680
-3.486470	5.909840	0.067030
-3.486680	5.910220	0.068380
-3.487260	5.911230	0.069730
-3.486800	5.910470	0.071060
-3.487190	5.911150	0.072410
-3.488110	5.912750	0.073770
-3.488660	5.913700	0.075120
-3.490870	5.917460	0.076510
-3.486530	5.911090	-0.016720
-3.486550	5.911150	-0.015380
-3.486670	5.911390	-0.014040
-3.486920	5.911840	-0.012710
-3.486570	5.911270	-0.011360
-3.486760	5.911620	-0.010030
-3.485880	5.910140	-0.008690
-3.485160	5.908940	-0.007350
-3.482280	5.904090	-0.006000
-3.475260	5.892220	-0.004660
-3.468230	5.880330	-0.003310
-3.464390	5.873850	-0.001980
-3.462160	5.870080	-0.000650
-3.460640	5.867540	0.000680
-3.459530	5.865670	0.002010
-3.458990	5.864780	0.003340
-3.458010	5.863150	0.004670
-3.457440	5.862210	0.005990
-3.456840	5.861210	0.007320
-3.456390	5.860480	0.008650
-3.455810	5.859510	0.009970
-3.455120	5.858370	0.011290
-3.455090	5.858340	0.012620
-3.454620	5.857570	0.013940
-3.454390	5.857200	0.015270
-3.454040	5.856650	0.016590
-3.453790	5.856240	0.017910
-3.453490	5.855750	0.019240
-3.453330	5.855500	0.020560
-3.453160	5.855240	0.021880
-3.453090	5.855150	0.023210
-3.452900	5.854850	0.024540
-3.453030	5.855090	0.025860
-3.452940	5.854960	0.027190
-3.452780	5.854710	0.028510
-3.452900	5.854950	0.029840
-3.453020	5.855180	0.031170
-3.452980	5.855140	0.032500
-3.453060	5.855280	0.033820
-3.453160	5.855480	0.035150
-3.453290	5.855740	0.036480
-3.453520	5.856140	0.037810
-3.453780	5.856600	0.039140
-3.454050	5.857090	0.040470
-3.454410	5.857720	0.041800
-3.454780	5.858380	0.043140
-3.455060	5.858880	0.044470
-3.455450	5.859560	0.045800
-3.455880	5.860320	0.047130
-3.456600	5.861570	0.048470
-3.457110	5.862450	0.049810
-3.457760	5.863570	0.051150
-3.458490	5.864830	0.052490
-3.459270	5.866190	0.053830
-3.460180	5.867750	0.055170
-3.461510	5.870030	0.056520
-3.464130	5.874490	0.057900
-3.468650	5.882180	0.059300
-3.475990	5.894650	0.060770
-3.482050	5.904950	0.062210
-3.483790	5.907920	0.063580
-3.485250	5.910430	0.064940
-3.485620	5.911080	0.066290
-3.485850	5.911490	0.067630
-3.486080	5.911910	0.068980
-3.485750	5.911370	0.070310
-3.486480	5.912620	0.071660
-3.486610	5.912880	0.073010
-3.487390	5.914220	0.074360
-3.488780	5.916600	0.075730
-3.492710	5.923280	0.077160
-3.432030	5.821330	-0.020280
-3.434650	5.825800	-0.018980
-3.485600	5.912250	-0.016580
-3.485900	5.912790	-0.015240
-3.485960	5.912920	-0.013900
-3.485560	5.912250	-0.012560
-3.485830	5.912750	-0.011220
-3.485460	5.912130	-0.009880
-3.485440	5.912130	-0.008540
-3.484630	5.910780	-0.007200
-3.483680	5.909180	-0.005860
-3.481650	5.905770	-0.004520
-3.474870	5.894300	-0.003180
-3.468190	5.882990	-0.001840
-3.463710	5.875430	-0.000510
-3.461740	5.872110	0.000830
-3.460220	5.869550	0.002150
-3.459150	5.867770	0.003480
-3.458170	5.866120	0.004810
-3.457390	5.864820	0.006140
-3.456580	5.863480	0.007460
-3.456160	5.862790	0.008790
-3.455580	5.861840	0.010110
-3.455300	5.861380	0.011440
-3.454700	5.860380	0.012760
-3.454340	5.859800	0.014090
-3.453970	5.859200	0.015410
-3.453510	5.858430	0.016740
-3.453490	5.858420	0.018060
-3.453060	5.857720	0.019390
-3.453110	5.857830	0.020710
-3.452860	5.857440	0.022040
-3.452660	5.857130	0.023360
-3.452750	5.857300	0.024690
-3.452630	5.857110	0.026010
-3.452580	5.857070	0.027340
-3.452620	5.857140	0.028660
-3.452450	5.856880	0.029990
-3.452570	5.857120	0.031320
-3.452750	5.857450	0.032640
-3.452850	5.857630	0.033970
-3.453100	5.858090	0.035300
-3.453100	5.858110	0.036620
-3.453280	5.858440	0.037950
-3.453700	5.859170	0.039280
-3.453870	5.859490	0.040610
-3.454100	5.859910	0.041940
-3.454650	5.860860	0.043280
-3.454880	5.861280	0.044610
-3.455570	5.862460	0.045940
-3.455950	5.863130	0.047280
-3.456500	5.864100	0.048610
-3.457160	5.865230	0.049950
-3.457790	5.866330	0.051290
-3.458810	5.868090	0.052640
-3.459910	5.869980	0.053980
-3.461300	5.872350	0.055340
-3.464420	5.877680	0.056720
-3.469740	5.886730	0.058140
-3.475730	5.896900	0.059580
-3.480790	5.905510	0.061000
-3.483610	5.910320	0.062390
-3.484240	5.911420	0.063740
-3.485050	5.912810	0.065090
-3.485170	5.913040	0.066430
-3.485390	5.913440	0.067780
-3.484760	5.912400	0.069100
-3.485230	5.913220	0.070450
-3.485290	5.913340	0.071790
-3.485640	5.913960	0.073140
-3.486640	5.915670	0.074500
-3.487370	5.916940	0.075860
-3.490520	5.922310	0.077270
-3.432550	5.824750	-0.020180
-3.433870	5.827020	-0.018870
-3.484630	5.913180	-0.016470
-3.485170	5.914130	-0.015130
-3.484850	5.913610	-0.013790
-3.485380	5.914530	-0.012460
-3.484720	5.913430	-0.011120
-3.484330	5.912790	-0.009780
-3.484440	5.912990	-0.008440
-3.484460	5.913050	-0.007100
-3.483700	5.911780	-0.005760
-3.483420	5.911340	-0.004420
-3.480840	5.906970	-0.003080
-3.475100	5.897260	-0.001740
-3.469360	5.887540	-0.000400
-3.464180	5.878780	0.000930
-3.461270	5.873860	0.002260
-3.459610	5.871070	0.003590
-3.458540	5.869280	0.004920
-3.457560	5.867640	0.006250
-3.456800	5.866380	0.007570
-3.456330	5.865610	0.008900
-3.455740	5.864640	0.010230
-3.455140	5.863630	0.011550
-3.454700	5.862930	0.012880
-3.454190	5.862080	0.014200
-3.453960	5.861710	0.015530
-3.453400	5.860790	0.016850
-3.453390	5.860810	0.018180
-3.453020	5.860210	0.019500
-3.452820	5.859890	0.020830
-3.452530	5.859430	0.022150
-3.452690	5.859710	0.023480
-3.452450	5.859330	0.024810
-3.452520	5.859480	0.026140
-3.452370	5.859250	0.027460
-3.452470	5.859440	0.028790
-3.452370	5.859300	0.030120
-3.452530	5.859600	0.031450
-3.452560	5.859650	0.032780
-3.452670	5.859850	0.034110
-3.452730	5.859980	0.035440
-3.452990	5.860440	0.036770
-3.453220	5.860870	0.038100
-3.453630	5.861590	0.039430
-3.453920	5.862100	0.040760
-3.454060	5.862360	0.042090
-3.454620	5.863330	0.043430
-3.455080	5.864150	0.044760
-3.455440	5.864780	0.046090
-3.456160	5.866030	0.047430
-3.456690	5.866950	0.048770
-3.457390	5.868150	0.050110
-3.458260	5.869650	0.051450
-3.459290	5.871420	0.052790
-3.461590	5.875350	0.054160
-3.464980	5.881120	0.055540
-3.471050	5.891450	0.056970
-3.477690	5.902750	0.058420
-3.481180	5.908690	0.059820
-3.482180	5.910410	0.061170
-3.483680	5.912980	0.062540
-3.484260	5.913990	0.063890
-3.483960	5.913510	0.065220
-3.484160	5.913880	0.066560
-3.484350	5.914220	0.067910
-3.484140	5.913890	0.069240
-3.484490	5.914500	0.070590
-3.484030	5.913750	0.071920
-3.484750	5.914990	0.073280
-3.486080	5.917290	0.074640
-3.486440	5.917910	0.075990
-3.484150	5.914920	-0.017170
-3.483510	5.913860	-0.015830
-3.484250	5.915150	-0.014500
-3.483670	5.914180	-0.013160
-3.484060	5.914890	-0.011820
-3.483570	5.914110	-0.009140
-3.484000	5.914870	-0.007810
-3.483330	5.913760	-0.006470
-3.482740	5.912790	-0.005130
-3.482960	5.913190	-0.003790
-3.482080	5.911720	-0.002450
-3.479240	5.906930	-0.001110
-3.474680	5.899220	0.000220
-3.468290	5.888400	0.001560
-3.463340	5.880020	0.002890
-3.460300	5.874890	0.004210
-3.458670	5.872150	0.005540
-3.457720	5.870560	0.006870
-3.457050	5.869440	0.008200
-3.455990	5.867670	0.009520
-3.455470	5.866810	0.010850
-3.454930	5.865920	0.012180
-3.454700	5.865550	0.013500
-3.454060	5.864500	0.014830
-3.453680	5.863880	0.016160
-3.453300	5.863250	0.017480
-3.453170	5.863060	0.018810
-3.452920	5.862650	0.020130
-3.452830	5.862520	0.021460
-3.452570	5.862110	0.022780
-3.452500	5.862010	0.024110
-3.452230	5.861590	0.025430
-3.452140	5.861460	0.026760
-3.452110	5.861430	0.028080
-3.452270	5.861720	0.029410
-3.452310	5.861810	0.030740
-3.452400	5.862000	0.032070
-3.452520	5.862220	0.033390
-3.452700	5.862550	0.034720
-3.452790	5.862720	0.036050
-3.452930	5.862970	0.037380
-3.453290	5.863600	0.038710
-3.453660	5.864250	0.040040
-3.454120	5.865060	0.041370
-3.454400	5.865560	0.042700
-3.454980	5.866570	0.044040
-3.455500	5.867480	0.045370
-3.456200	5.868680	0.046710
-3.456970	5.870010	0.048050
-3.457830	5.871490	0.049390
-3.458940	5.873390	0.050740
-3.461690	5.878090	0.052110
-3.465610	5.884770	0.053500
-3.470710	5.893460	0.054920
-3.476400	5.903140	0.056340
-3.479790	5.908910	0.057740
-3.481740	5.912250	0.059110
-3.481890	5.912530	0.060450
-3.483460	5.915220	0.061820
-3.483260	5.914910	0.063150
-3.483040	5.914550	0.064490
-3.483540	5.915430	0.065830
-3.483320	5.915080	0.067170
-3.483630	5.915620	0.068510
-3.483710	5.915790	0.069850
-3.483660	5.915730	0.071190
-3.483240	5.915040	0.072520
-3.484920	5.917920	0.073890
-3.485490	5.918900	0.075250
-3.485230	5.918480	0.076580
-3.483140	5.915950	-0.017310
-3.483160	5.916010	-0.015970
-3.483270	5.916220	-0.014630
-3.482550	5.915020	-0.013290
-3.482920	5.915680	-0.011950
-3.482790	5.915490	-0.010610
-3.483030	5.915920	-0.009270
-3.482650	5.915290	-0.007930
-3.482600	5.915240	-0.006600
-3.482380	5.914890	-0.005260
-3.482490	5.915100	-0.003920
-3.481800	5.913950	-0.002580
-3.481460	5.913390	-0.001240
-3.480120	5.911140	0.000100
-3.477020	5.905910	0.001430
-3.471430	5.896440	0.002770
-3.465860	5.887000	0.004090
-3.461360	5.879390	0.005420
-3.459270	5.875860	0.006740
-3.458050	5.873810	0.008070
-3.456650	5.871450	0.009400
-3.456010	5.870400	0.010720
-3.455380	5.869360	0.012050
-3.454850	5.868480	0.013380
-3.454230	5.867460	0.014700
-3.453860	5.866850	0.016030
-3.453510	5.866280	0.017360
-3.453240	5.865840	0.018680
-3.452800	5.865120	0.020010
-3.452580	5.864760	0.021340
-3.452470	5.864610	0.022660
-3.452400	5.864510	0.023990
-3.452130	5.864080	0.025320
-3.452230	5.864280	0.026650
-3.452300	5.864410	0.027970
-3.452150	5.864180	0.029300
-3.452220	5.864320	0.030630
-3.452180	5.864280	0.031960
-3.452410	5.864690	0.033290
-3.452610	5.865060	0.034620
-3.452860	5.865520	0.035950
-3.453120	5.865980	0.037280
-3.453530	5.866710	0.038610
-3.453620	5.866880	0.039940
-3.454260	5.867980	0.041280
-3.454590	5.868560	0.042610
-3.455010	5.869310	0.043940
-3.455740	5.870580	0.045280
-3.456790	5.872380	0.046630
-3.457610	5.873800	0.047970
-3.459400	5.876870	0.049320
-3.462090	5.881450	0.050690
-3.466200	5.888450	0.052080
-3.472620	5.899380	0.053520
-3.477010	5.906870	0.054920
-3.479740	5.911520	0.056300
-3.480760	5.913280	0.057650
-3.480750	5.913300	0.058990
-3.481870	5.915210	0.060350
-3.482100	5.915640	0.061690
-3.482020	5.915520	0.063030
-3.482210	5.915870	0.064370
-3.481880	5.915340	0.065700
-3.482140	5.915800	0.067050
-3.482490	5.916420	0.068390
-3.482360	5.916220	0.069730
-3.482560	5.916590	0.071080
-3.482630	5.916730	0.072420
-3.483440	5.918120	0.073780
-3.485160	5.921070	0.075150
-3.483620	5.918470	0.076460
-3.482940	5.916730	-0.016680
-3.482550	5.916400	-0.015340
-3.482090	5.915960	-0.014000
-3.482670	5.917270	-0.012660
-3.481710	5.915960	-0.011320
-3.481860	5.916550	-0.009980
-3.481810	5.916550	-0.008640
-3.481590	5.916190	-0.007300
-3.481900	5.916750	-0.005960
-3.482000	5.916930	-0.004620
-3.481630	5.916320	-0.003280
-3.481400	5.915960	-0.001940
-3.481320	5.915850	-0.000600
-3.480670	5.914770	0.000730
-3.478890	5.911770	0.002070
-3.477050	5.908670	0.003410
-3.472790	5.901440	0.004740
-3.467140	5.891870	0.006060
-3.462840	5.884580	0.007380
-3.459850	5.879530	0.008710
-3.457670	5.875850	0.010030
-3.456500	5.873880	0.011360
-3.455790	5.872710	0.012680
-3.454980	5.871350	0.014010
-3.454390	5.870370	0.015340
-3.453860	5.869490	0.016660
-3.453680	5.869220	0.017990
-3.453150	5.868340	0.019320
-3.453190	5.868440	0.020640
-3.452810	5.867810	0.021970
-3.452680	5.867620	0.023300
-3.452540	5.867410	0.024620
-3.452160	5.866790	0.025950
-3.452480	5.867360	0.027280
-3.452580	5.867560	0.028610
-3.452420	5.867310	0.029940
-3.452570	5.867590	0.031270
-3.452570	5.867620	0.032600
-3.452600	5.867700	0.033920
-3.452770	5.868010	0.035250
-3.453110	5.868610	0.036590
-3.453640	5.869550	0.037920
-3.453750	5.869750	0.039250
-3.454400	5.870890	0.040590
-3.454860	5.871690	0.041920
-3.455470	5.872740	0.043260
-3.456390	5.874340	0.044600
-3.457650	5.876490	0.045950
-3.459980	5.880480	0.047310
-3.462890	5.885450	0.048680
-3.467590	5.893460	0.050080
-3.472770	5.902280	0.051490
-3.476970	5.909440	0.052890
-3.479080	5.913050	0.054260
-3.480270	5.915080	0.055620
-3.480540	5.915570	0.056960
-3.481170	5.916650	0.058310
-3.481150	5.916640	0.059650
-3.480950	5.916330	0.060990
-3.481050	5.916520	0.062330
-3.481610	5.917490	0.063680
-3.481070	5.916600	0.065010
-3.481430	5.917240	0.066360
-3.481000	5.916520	0.067690
-3.481030	5.916610	0.069030
-3.481340	5.917160	0.070370
-3.481290	5.917100	0.071710
-3.482060	5.918430	0.073070
-3.483440	5.920800	0.074440
-3.484360	5.922390	0.075800
-3.481310	5.918170	-0.016630
-3.481500	5.918520	-0.015300
-3.480790	5.917340	-0.013960
-3.480690	5.917190	-0.012620
-3.481390	5.918410	-0.011280
-3.481260	5.918210	-0.009940
-3.480680	5.917250	-0.008600
-3.480870	5.917590	-0.007260
-3.480600	5.917150	-0.005920
-3.480870	5.917650	-0.004580
-3.480560	5.917140	-0.003240
-3.480740	5.917480	-0.001900
-3.480540	5.917160	-0.000560
-3.479960	5.916200	0.000780
-3.479660	5.915700	0.002120
-3.478940	5.914510	0.003450
-3.477680	5.912400	0.004790
-3.475570	5.908840	0.006130
-3.471720	5.902320	0.007460
-3.466980	5.894280	0.008780
-3.463190	5.887870	0.010100
-3.459790	5.882120	0.011420
-3.457990	5.879080	0.012750
-3.456660	5.876850	0.014080
-3.455660	5.875160	0.015400
-3.455080	5.874200	0.016730
-3.454310	5.872930	0.018050
-3.453740	5.871980	0.019380
-3.453600	5.871760	0.020710
-3.453150	5.871020	0.022030
-3.452980	5.870760	0.023360
-3.452920	5.870690	0.024690
-3.452800	5.870500	0.026020
-3.452570	5.870130	0.027340
-3.452680	5.870350	0.028670
-3.452610	5.870240	0.030000
-3.452810	5.870610	0.031330
-3.452930	5.870850	0.032660
-3.453370	5.871620	0.033990
-3.453240	5.871410	0.035320
-3.453640	5.872120	0.036650
-3.454430	5.873500	0.037990
-3.454640	5.873870	0.039320
-3.455290	5.874990	0.040660
-3.456220	5.876610	0.042000
-3.457950	5.879570	0.043350
-3.460600	5.884100	0.044720
-3.463560	5.889160	0.046090
-3.467300	5.895530	0.047470
-3.472430	5.904280	0.048880
-3.475440	5.909420	0.050260
-3.477800	5.913460	0.051630
-3.478290	5.914310	0.052980
-3.479610	5.916580	0.054340
-3.480230	5.917670	0.055690
-3.480150	5.917550	0.057030
-3.480130	5.917550	0.058370
-3.480430	5.918070	0.059710
-3.480080	5.917500	0.061040
-3.480270	5.917850	0.062390
-3.480710	5.918620	0.063730
-3.480050	5.917530	0.065060
-3.480090	5.917620	0.066400
-3.480090	5.917640	0.067740
-3.480470	5.918310	0.069090
-3.480340	5.918120	0.070420
-3.480450	5.918330	0.071760
-3.481160	5.919550	0.073120
-3.483100	5.922880	0.074500
-3.483310	5.923270	0.075840
-3.480120	5.918870	-0.016380
-3.479740	5.918250	-0.015040
-3.480020	5.918750	-0.013710
-3.480420	5.919470	-0.012370
-3.480090	5.918920	-0.011030
-3.479870	5.918580	-0.009690
-3.479890	5.918630	-0.008350
-3.479780	5.918470	-0.007010
-3.479890	5.918670	-0.005670
-3.479900	5.918730	-0.004330
-3.479810	5.918590	-0.002990
-3.479780	5.918570	-0.001650
-3.479350	5.917850	-0.000320
-3.479350	5.917870	0.001030
-3.478890	5.917130	0.002360
-3.478710	5.916840	0.003700
-3.478760	5.916960	0.005040
-3.478200	5.916020	0.006380
-3.477100	5.914170	0.007720
-3.475160	5.910900	0.009050
-3.472350	5.906140	0.010380
-3.468410	5.899480	0.011710
-3.465640	5.894780	0.013030
-3.462700	5.889800	0.014350
-3.459850	5.884990	0.015670
-3.457980	5.881830	0.016990
-3.456890	5.879990	0.018320
-3.455950	5.878440	0.019640
-3.455020	5.876880	0.020970
-3.454580	5.876150	0.022290
-3.453900	5.875010	0.023620
-3.454070	5.875330	0.024950
-3.453710	5.874740	0.026280
-3.453560	5.874500	0.027600
-3.453800	5.874950	0.028940
-3.453780	5.874920	0.030270
-3.453940	5.875230	0.031600
-3.454110	5.875530	0.032930
-3.454760	5.876660	0.034270
-3.455180	5.877410	0.035610
-3.455890	5.878630	0.036940
-3.457390	5.881220	0.038290
-3.458750	5.883550	0.039640
-3.460960	5.887340	0.041000
-3.463620	5.891870	0.042370
-3.466780	5.897270	0.043740
-3.470160	5.903040	0.045120
-3.473830	5.909310	0.046500
-3.475940	5.912920	0.047870
-3.477200	5.915090	0.049230
-3.478230	5.916880	0.050580
-3.478370	5.917130	0.051920
-3.478680	5.917670	0.053260
-3.479270	5.918700	0.054610
-3.479260	5.918710	0.055950
-3.479320	5.918850	0.057290
-3.479450	5.919080	0.058630
-3.479490	5.919170	0.059970
-3.478890	5.918190	0.061300
-3.479290	5.918890	0.062650
-3.479330	5.918990	0.063990
-3.479130	5.918660	0.065320
-3.479330	5.919040	0.066670
-3.479080	5.918630	0.068000
-3.479350	5.919110	0.069340
-3.479060	5.918650	0.070680
-3.479320	5.919100	0.072020
-3.480520	5.921200	0.073390
-3.482300	5.924270	0.074770
-3.482340	5.924360	0.076110
-3.480250	5.921710	-0.017490
-3.479640	5.920690	-0.016150
-3.478860	5.919400	-0.014800
-3.479280	5.920130	-0.013470
-3.478920	5.919550	-0.012130
-3.479150	5.919960	-0.010790
-3.479130	5.919950	-0.009450
-3.479350	5.920360	-0.008110
-3.478960	5.919710	-0.006770
-3.479010	5.919820	-0.005430
-3.478900	5.919650	-0.004090
-3.478910	5.919700	-0.002750
-3.478680	5.919330	-0.001410
-3.478570	5.919170	-0.000070
-3.478600	5.919240	0.001270
-3.478530	5.919150	0.002610
-3.478650	5.919390	0.003950
-3.478050	5.918380	0.005290
-3.478060	5.918430	0.006630
-3.477480	5.917460	0.007970
-3.477070	5.916790	0.009300
-3.476390	5.915670	0.010640
-3.475450	5.914090	0.011980
-3.473510	5.910810	0.013310
-3.471460	5.907340	0.014640
-3.468430	5.902220	0.015960
-3.465690	5.897570	0.017280
-3.463140	5.893270	0.018610
-3.461240	5.890050	0.019930
-3.460460	5.888750	0.021260
-3.459070	5.886420	0.022580
-3.458070	5.884730	0.023900
-3.457570	5.883900	0.025230
-3.457060	5.883070	0.026560
-3.457110	5.883170	0.027890
-3.456780	5.882640	0.029220
-3.457340	5.883620	0.030550
-3.457770	5.884370	0.031890
-3.459060	5.886590	0.033230
-3.459580	5.887500	0.034570
-3.461120	5.890150	0.035920
-3.462850	5.893110	0.037270
-3.464610	5.896130	0.038620
-3.467230	5.900620	0.039990
-3.470210	5.905700	0.041360
-3.472640	5.909870	0.042730
-3.474610	5.913240	0.044090
-3.475510	5.914810	0.045440
-3.476550	5.916590	0.046790
-3.476930	5.917260	0.048140
-3.477460	5.918190	0.049490
-3.477650	5.918540	0.050830
-3.478490	5.920000	0.052180
-3.478280	5.919660	0.053520
-3.478220	5.919580	0.054860
-3.478200	5.919560	0.056200
-3.477750	5.918820	0.057530
-3.478300	5.919790	0.058880
-3.478350	5.919910	0.060220
-3.478390	5.919990	0.061560
-3.478370	5.919980	0.062900
-3.478520	5.920270	0.064240
-3.478490	5.920240	0.065580
-3.478550	5.920360	0.066920
-3.478190	5.919780	0.068250
-3.478540	5.920400	0.069600
-3.478260	5.919940	0.070930
-3.478100	5.919700	0.072270
-3.479780	5.922580	0.073640
-3.480650	5.924090	0.075000
-3.481530	5.925600	0.076360
-3.479230	5.922680	-0.017270
-3.478090	5.920770	-0.015930
-3.477950	5.920560	-0.014590
-3.478020	5.920690	-0.013250
-3.478440	5.921440	-0.011910
-3.478040	5.920770	-0.010570
-3.478130	5.920960	-0.009230
-3.478060	5.920850	-0.007890
-3.477940	5.920690	-0.006550
-3.478190	5.921130	-0.005210
-3.478140	5.921070	-0.003870
-3.477450	5.919910	-0.002530
-3.477900	5.920710	-0.001190
-3.477700	5.920390	0.000150
-3.477620	5.920290	0.001490
-3.477500	5.920110	0.002830
-3.477890	5.920780	0.004170
-3.477620	5.920360	0.005510
-3.476830	5.919040	0.006850
-3.476620	5.918700	0.008190
-3.477020	5.919400	0.009530
-3.476770	5.919000	0.010870
-3.476200	5.918060	0.012210
-3.475910	5.917580	0.013540
-3.475350	5.916650	0.014880
-3.474780	5.915710	0.016210
-3.474110	5.914610	0.017550
-3.472900	5.912570	0.018880
-3.471620	5.910410	0.020210
-3.470570	5.908640	0.021540
-3.469120	5.906210	0.022870
-3.468670	5.905460	0.024200
-3.467590	5.903660	0.025530
-3.466730	5.902210	0.026860
-3.466590	5.902010	0.028190
-3.466950	5.902640	0.029530
-3.467110	5.902950	0.030870
-3.468170	5.904780	0.032210
-3.469650	5.907330	0.033570
-3.470560	5.908910	0.034910
-3.471330	5.910240	0.036260
-3.472740	5.912660	0.037610
-3.473580	5.914130	0.038960
-3.474210	5.915220	0.040310
-3.475630	5.917670	0.041660
-3.475740	5.917880	0.043000
-3.476120	5.918550	0.044340
-3.476740	5.919620	0.045690
-3.476730	5.919630	0.047030
-3.476830	5.919830	0.048370
-3.477400	5.920820	0.049710
-3.477280	5.920640	0.051050
-3.477470	5.920990	0.052390
-3.477120	5.920420	0.053720
-3.477460	5.921020	0.055070
-3.477360	5.920860	0.056400
-3.477330	5.920840	0.057740
-3.476910	5.920140	0.059080
-3.477170	5.920600	0.060420
-3.477540	5.921260	0.061770
-3.477560	5.921320	0.063110
-3.477540	5.921310	0.064450
-3.477460	5.921190	0.065780
-3.477360	5.921050	0.067120
-3.476860	5.920210	0.068450
-3.477340	5.921050	0.069800
-3.477270	5.920960	0.071140
-3.477580	5.921510	0.072490
-3.479240	5.924360	0.073860
-3.481000	5.927380	0.075240
-3.480970	5.927350	0.076580
-3.489570	5.942910	-0.018330
-3.478030	5.923290	-0.016930
-3.477410	5.922260	-0.015590
-3.477420	5.922310	-0.014250
-3.477350	5.922210	-0.012910
-3.476910	5.921490	-0.011570
-3.476940	5.921570	-0.010230
-3.477410	5.922380	-0.008890
-3.477270	5.922160	-0.007550
-3.477010	5.921750	-0.006210
-3.476990	5.921730	-0.004870
-3.476850	5.921520	-0.003530
-3.476650	5.921210	-0.002190
-3.476750	5.921400	-0.000850
-3.476720	5.921370	0.000490
-3.476740	5.921430	0.001830
-3.476810	5.921580	0.003170
-3.476980	5.921890	0.004510
-3.476780	5.921560	0.005850
-3.476350	5.920860	0.007180
-3.475920	5.920150	0.008520
-3.476450	5.921080	0.009860
-3.476480	5.921160	0.011200
-3.476330	5.920910	0.012540
-3.476030	5.920430	0.013880
-3.475530	5.919600	0.015210
-3.474970	5.918670	0.016550
-3.475120	5.918950	0.017890
-3.474940	5.918660	0.019230
-3.474700	5.918280	0.020560
-3.474090	5.917270	0.021900
-3.474250	5.917560	0.023240
-3.473650	5.916560	0.024570
-3.472990	5.915470	0.025900
-3.472730	5.915060	0.027240
-3.472990	5.915510	0.028580
-3.473040	5.915620	0.029910
-3.472990	5.915570	0.031250
-3.472960	5.915540	0.032590
-3.473550	5.916570	0.033930
-3.474570	5.918330	0.035280
-3.474580	5.918390	0.036620
-3.474840	5.918860	0.037960
-3.474450	5.918220	0.039300
-3.475220	5.919560	0.040650
-3.475920	5.920780	0.041990
-3.475940	5.920830	0.043330
-3.476080	5.921110	0.044680
-3.475990	5.921010	0.047360
-3.476140	5.921290	0.048700
-3.476280	5.921540	0.050040
-3.476470	5.921880	0.051380
-3.475920	5.920970	0.052710
-3.476470	5.921930	0.054060
-3.476380	5.921800	0.055400
-3.476550	5.922100	0.056740
-3.476110	5.921380	0.058070
-3.476210	5.921580	0.059410
-3.476580	5.922220	0.060760
-3.476390	5.921930	0.062100
-3.476240	5.921690	0.063430
-3.476490	5.922150	0.064780
-3.476440	5.922080	0.066120
-3.476330	5.921910	0.067450
-3.476390	5.922050	0.068800
-3.476630	5.922470	0.070140
-3.476410	5.922130	0.071480
-3.477380	5.923800	0.072840
-3.479240	5.927000	0.074220
-3.480500	5.929170	0.075580
-3.486090	5.938710	0.077050
-3.486820	5.940920	-0.018440
-3.477860	5.925680	-0.017060
-3.476320	5.923080	-0.015710
-3.475670	5.921990	-0.014370
-3.475840	5.922310	-0.013030
-3.475690	5.922080	-0.011690
-3.476150	5.922880	-0.010350
-3.476180	5.922960	-0.009010
-3.476120	5.922880	-0.007680
-3.476280	5.923190	-0.006340
-3.476150	5.922990	-0.005000
-3.475880	5.922550	-0.003660
-3.475990	5.922750	-0.002320
-3.475930	5.922680	-0.000980
-3.475670	5.922270	0.000360
-3.475450	5.921920	0.001700
-3.475660	5.922300	0.003040
-3.475720	5.922420	0.004380
-3.476030	5.922970	0.005720
-3.475410	5.921950	0.007060
-3.475630	5.922330	0.008400
-3.475850	5.922740	0.009740
-3.475120	5.921520	0.011080
-3.475410	5.922040	0.012420
-3.474930	5.921250	0.013750
-3.475720	5.922610	0.015100
-3.475180	5.921720	0.016430
-3.475400	5.922120	0.017770
-3.475250	5.921890	0.019110
-3.474980	5.921480	0.021790
-3.474760	5.921120	0.023130
-3.474700	5.921060	0.024470
-3.474760	5.921180	0.025810
-3.474610	5.920960	0.027140
-3.474360	5.920550	0.028480
-3.473820	5.919660	0.029820
-3.474190	5.920310	0.031160
-3.474490	5.920840	0.032510
-3.474640	5.921110	0.033850
-3.474380	5.920710	0.035180
-3.474720	5.921310	0.036530
-3.474690	5.921280	0.037870
-3.475340	5.922420	0.039220
-3.475260	5.922310	0.040560
-3.475840	5.923310	0.041900
-3.474750	5.921480	0.043230
-3.475220	5.922310	0.044570
-3.475530	5.922870	0.045920
-3.475220	5.922360	0.047250
-3.475800	5.923360	0.048600
-3.475020	5.922060	0.049920
-3.475370	5.922690	0.051270
-3.475580	5.923060	0.052610
-3.475570	5.923080	0.053950
-3.475140	5.922360	0.055280
-3.475260	5.922600	0.056620
-3.475400	5.922870	0.057960
-3.475590	5.923200	0.059310
-3.474980	5.922190	0.060630
-3.475110	5.922430	0.061980
-3.475120	5.922480	0.063320
-3.475540	5.923210	0.064670
-3.474870	5.922110	0.065990
-3.475300	5.922870	0.067340
-3.475460	5.923160	0.068680
-3.475630	5.923470	0.070030
-3.475020	5.922460	0.071360
-3.476250	5.924580	0.072720
-3.478320	5.928130	0.074110
-3.479420	5.930040	0.075470
-3.485310	5.940100	0.076940
-3.490370	5.949670	-0.020550
-3.485550	5.941470	-0.019170
-3.480190	5.932370	-0.017800
-3.475760	5.924850	-0.016440
-3.475290	5.924070	-0.015100
-3.475190	5.923920	-0.013760
-3.474960	5.923550	-0.012420
-3.475290	5.924150	-0.011080
-3.474970	5.923620	-0.009740
-3.474750	5.923270	-0.008400
-3.474640	5.923110	-0.007060
-3.475250	5.924160	-0.005720
-3.474910	5.923620	-0.004380
-3.474700	5.923290	-0.003040
-3.475090	5.923980	-0.001700
-3.475040	5.923910	-0.000360
-3.475270	5.924330	0.000980
-3.474850	5.923630	0.002320
-3.474660	5.923350	0.003660
-3.474540	5.923170	0.005000
-3.474530	5.923170	0.006340
-3.474380	5.922940	0.007680
-3.474810	5.923680	0.009020
-3.475230	5.924430	0.010360
-3.475240	5.924470	0.011700
-3.474730	5.923630	0.013040
-3.474370	5.923040	0.014380
-3.474520	5.923320	0.015720
-3.474420	5.923180	0.017060
-3.474780	5.923800	0.018400
-3.474460	5.923300	0.019740
-3.473940	5.922430	0.021080
-3.473990	5.922530	0.022410
-3.474080	5.922730	0.023750
-3.474490	5.923430	0.025100
-3.474190	5.922960	0.026430
-3.474180	5.922970	0.027770
-3.474590	5.923690	0.029110
-3.473540	5.921920	0.030440
-3.474050	5.922820	0.031790
-3.474290	5.923250	0.033130
-3.474140	5.923020	0.034470
-3.474190	5.923130	0.035810
-3.474270	5.923270	0.037150
-3.474360	5.923450	0.038490
-3.474290	5.923360	0.039830
-3.474320	5.923430	0.041170
-3.474690	5.924070	0.042520
-3.474540	5.923850	0.043860
-3.474090	5.923100	0.045190
-3.474770	5.924280	0.046540
-3.474310	5.923520	0.047880
-3.474520	5.923910	0.049220
-3.474440	5.923790	0.050560
-3.474460	5.923850	0.051900
-3.474520	5.923990	0.053240
-3.474430	5.923860	0.054570
-3.474620	5.924200	0.055920
-3.474540	5.924100	0.057250
-3.474510	5.924080	0.058590
-3.474560	5.924190	0.059930
-3.474620	5.924320	0.061270
-3.474350	5.923890	0.062610
-3.474620	5.924370	0.063950
-3.474280	5.923830	0.065290
-3.474540	5.924280	0.066630
-3.474410	5.924100	0.067970
-3.474530	5.924310	0.069320
-3.474410	5.924130	0.070660
-3.474450	5.924240	0.072000
-3.476020	5.926930	0.073370
-3.478250	5.930750	0.074760
-3.479600	5.933080	0.076130
-3.487860	5.947190	0.077660
-3.487730	5.947900	-0.021600
-3.484580	5.942550	-0.020230
-3.481990	5.938170	-0.018880
-3.477060	5.929780	-0.017510
-3.474970	5.926240	-0.016160
-3.474520	5.925500	-0.014820
-3.474000	5.924640	-0.013480
-3.474240	5.925060	-0.012140
-3.474100	5.924860	-0.010800
-3.474300	5.925220	-0.009460
-3.473950	5.924640	-0.008120
-3.474210	5.925120	-0.006780
-3.473910	5.924620	-0.005440
-3.474150	5.925070	-0.004100
-3.473890	5.924640	-0.002760
-3.473860	5.924610	-0.001420
-3.474370	5.925510	-0.000080
-3.474050	5.924990	0.001260
-3.473930	5.924810	0.002600
-3.474180	5.925260	0.003940
-3.473880	5.924770	0.005280
-3.473570	5.924260	0.006620
-3.473880	5.924820	0.007960
-3.473710	5.924570	0.009290
-3.473910	5.924930	0.010630
-3.473740	5.924650	0.011970
-3.473690	5.924600	0.013310
-3.473380	5.924090	0.014650
-3.473840	5.924900	0.015990
-3.473610	5.924540	0.017330
-3.473170	5.923810	0.018660
-3.474030	5.925300	0.020010
-3.473360	5.924180	0.021340
-3.473510	5.924470	0.022680
-3.473390	5.924280	0.024020
-3.473340	5.924220	0.025360
-3.473480	5.924490	0.026700
-3.473100	5.923860	0.028030
-3.473630	5.924790	0.029380
-3.473590	5.924740	0.030720
-3.473560	5.924710	0.032060
-3.473740	5.925040	0.033400
-3.473290	5.924300	0.034740
-3.473280	5.924310	0.036080
-3.473270	5.924320	0.037410
-3.473440	5.924630	0.038760
-3.473780	5.925250	0.040100
-3.473130	5.924160	0.041430
-3.473470	5.924770	0.042780
-3.473450	5.924750	0.044110
-3.473450	5.924780	0.045450
-3.473390	5.924700	0.046790
-3.473450	5.924840	0.048130
-3.473430	5.924820	0.049470
-3.473660	5.925240	0.050810
-3.473050	5.924210	0.052140
-3.473650	5.925270	0.053490
-3.473460	5.924970	0.054830
-3.473350	5.924800	0.056160
-3.473440	5.924980	0.057500
-3.473510	5.925120	0.058840
-3.473470	5.925080	0.060180
-3.473310	5.924840	0.061520
-3.473460	5.925120	0.062860
-3.473190	5.924670	0.064200
-3.472910	5.924230	0.065530
-3.473170	5.924690	0.066870
-3.473480	5.925250	0.068220
-3.473130	5.924670	0.069550
-3.473800	5.925840	0.070900
-3.473560	5.925470	0.072240
-3.475200	5.928280	0.073610
-3.476920	5.931230	0.074990
-3.478870	5.934590	0.076380
-3.486590	5.947770	0.077890
-3.484370	5.944930	-0.021690
-3.482120	5.941100	-0.020330
-3.479840	5.937230	-0.018980
-3.476290	5.931210	-0.017620
-3.473350	5.926220	-0.016260
-3.473220	5.926010	-0.014920
-3.473230	5.926060	-0.013590
-3.472840	5.925420	-0.012250
-3.473290	5.926200	-0.010910
-3.473180	5.926040	-0.009570
-3.473030	5.925800	-0.008230
-3.472730	5.925330	-0.006890
-3.472770	5.925420	-0.005550
-3.472840	5.925560	-0.004210
-3.472740	5.925410	-0.002870
-3.473000	5.925870	-0.001530
-3.473010	5.925910	-0.000190
-3.473020	5.925950	0.001150
-3.473020	5.925980	0.002490
-3.473050	5.926040	0.003830
-3.472620	5.925340	0.005170
-3.472660	5.925430	0.006510
-3.472930	5.925910	0.007850
-3.472680	5.925510	0.009190
-3.472470	5.925180	0.010530
-3.473090	5.926260	0.011870
-3.472870	5.925910	0.013200
-3.472640	5.925540	0.014540
-3.472560	5.925420	0.015880
-3.472940	5.926100	0.017220
-3.472480	5.925340	0.018560
-3.472610	5.925590	0.019900
-3.472200	5.924920	0.021240
-3.472440	5.925360	0.022580
-3.472740	5.925890	0.023920
-3.472650	5.925770	0.025260
-3.472740	5.925950	0.026600
-3.472850	5.926170	0.027940
-3.472490	5.925590	0.029280
-3.472310	5.925300	0.030620
-3.472780	5.926130	0.031960
-3.472320	5.925360	0.033300
-3.472360	5.925460	0.034640
-3.472510	5.925740	0.035980
-3.472290	5.925390	0.037310
-3.472860	5.926390	0.038660
-3.472460	5.925730	0.039990
-3.472680	5.926130	0.041330
-3.472750	5.926280	0.042680
-3.472590	5.926020	0.044010
-3.472420	5.925760	0.045350
-3.472110	5.925250	0.046680
-3.472450	5.925860	0.048030
-3.472390	5.925770	0.049370
-3.472290	5.925620	0.050700
-3.472100	5.925310	0.052040
-3.472230	5.925560	0.053380
-3.472590	5.926200	0.054730
-3.472330	5.925770	0.056060
-3.472630	5.926290	0.057410
-3.472470	5.926050	0.058740
-3.472460	5.926070	0.060080
-3.472450	5.926060	0.061420
-3.472270	5.925790	0.062760
-3.472120	5.925560	0.064090
-3.472450	5.926140	0.065440
-3.472590	5.926400	0.066780
-3.472460	5.926210	0.068120
-3.472430	5.926190	0.069460
-3.472560	5.926420	0.070810
-3.472370	5.926120	0.072140
-3.474110	5.929130	0.073520
-3.475600	5.931690	0.074890
-3.477740	5.935360	0.076280
-3.483040	5.944430	0.077740
-3.482700	5.944790	-0.021050
-3.480210	5.940560	-0.019690
-3.476930	5.934980	-0.018330
-3.473410	5.929010	-0.016970
-3.472470	5.927430	-0.015630
-3.472120	5.926850	-0.014290
-3.471880	5.926470	-0.012940
-3.472530	5.927600	-0.011610
-3.471950	5.926630	-0.010260
-3.472040	5.926810	-0.008920
-3.472010	5.926790	-0.007580
-3.471650	5.926210	-0.006240
-3.471780	5.926450	-0.004900
-3.471680	5.926300	-0.003560
-3.472170	5.927160	-0.002220
-3.472320	5.927430	-0.000880
-3.472010	5.926930	0.000460
-3.472250	5.927370	0.001800
-3.472250	5.927400	0.003140
-3.472100	5.927160	0.004480
-3.471810	5.926690	0.005810
-3.471600	5.926360	0.007150
-3.471770	5.926670	0.008490
-3.471800	5.926740	0.009830
-3.472370	5.927760	0.011170
-3.471670	5.926580	0.012510
-3.471380	5.926100	0.013850
-3.471410	5.926190	0.015190
-3.471450	5.926280	0.016530
-3.471800	5.926890	0.017870
-3.471690	5.926730	0.019210
-3.471390	5.926240	0.020550
-3.471710	5.926820	0.021890
-3.471400	5.926310	0.023230
-3.471300	5.926160	0.024570
-3.471550	5.926620	0.025920
-3.471360	5.926320	0.027250
-3.471140	5.925970	0.028590
-3.471820	5.927160	0.029940
-3.471840	5.927210	0.031280
-3.471440	5.926550	0.032620
-3.471410	5.926520	0.033960
-3.471620	5.926920	0.035300
-3.471480	5.926700	0.036640
-3.471520	5.926790	0.037980
-3.471070	5.926040	0.039310
-3.471550	5.926900	0.040660
-3.471640	5.927090	0.043340
-3.471660	5.927160	0.044680
-3.472030	5.927810	0.046030
-3.471110	5.926260	0.047350
-3.471540	5.927020	0.048700
-3.471190	5.926450	0.050030
-3.471320	5.926700	0.051370
-3.471320	5.926720	0.052710
-3.471720	5.927430	0.054060
-3.471480	5.927030	0.055400
-3.471400	5.926930	0.056740
-3.471040	5.926340	0.058070
-3.471460	5.927080	0.059420
-3.471130	5.926550	0.060750
-3.471230	5.926740	0.062090
-3.471340	5.926940	0.063440
-3.471360	5.927000	0.064780
-3.471450	5.927190	0.066120
-3.471680	5.927600	0.067460
-3.471490	5.927310	0.068800
-3.471100	5.926660	0.070130
-3.471360	5.927140	0.071480
-3.472380	5.928890	0.072840
-3.474750	5.932960	0.074230
-3.475490	5.934250	0.075590
-3.477870	5.938340	0.076980
-3.481980	5.946240	-0.021170
-3.478360	5.940070	-0.019800
-3.476080	5.936200	-0.018450
-3.472370	5.929900	-0.017090
-3.471530	5.928490	-0.015750
-3.471100	5.927780	-0.014410
-3.470990	5.927620	-0.013070
-3.471050	5.927740	-0.011730
-3.470590	5.926990	-0.010390
-3.470810	5.927380	-0.009050
-3.470970	5.927690	-0.007710
-3.471350	5.928350	-0.006370
-3.471300	5.928290	-0.005030
-3.470760	5.927400	-0.003690
-3.470840	5.927550	-0.002350
-3.470610	5.927190	-0.001010
-3.470790	5.927520	0.000330
-3.471100	5.928080	0.001670
-3.471020	5.927970	0.003010
-3.471090	5.928110	0.004350
-3.470470	5.927070	0.005680
-3.470490	5.927140	0.007020
-3.471100	5.928190	0.008360
-3.470810	5.927750	0.011040
-3.470690	5.927570	0.012380
-3.470880	5.927920	0.013720
-3.471050	5.928240	0.015060
-3.470900	5.928010	0.016390
-3.470640	5.927580	0.017730
-3.470500	5.927370	0.019070
-3.470470	5.927340	0.020410
-3.470470	5.927370	0.021750
-3.470400	5.927270	0.023090
-3.471170	5.928620	0.024430
-3.470510	5.927510	0.025770
-3.470440	5.927410	0.027110
-3.470310	5.927220	0.028450
-3.470550	5.927650	0.029790
-3.470360	5.927360	0.031130
-3.470910	5.928320	0.032470
-3.470640	5.927880	0.033810
-3.470380	5.927460	0.035150
-3.470890	5.928360	0.036490
-3.470530	5.927770	0.037830
-3.470620	5.927940	0.039170
-3.470780	5.928240	0.040510
-3.470970	5.928590	0.041850
-3.470790	5.928310	0.043190
-3.470520	5.927870	0.044530
-3.470240	5.927420	0.045860
-3.470390	5.927700	0.047200
-3.470550	5.928000	0.048540
-3.470660	5.928210	0.049890
-3.470500	5.927960	0.051220
-3.470290	5.927620	0.052560
-3.470420	5.927870	0.053900
-3.470470	5.927980	0.055240
-3.470750	5.928490	0.056580
-3.470120	5.927430	0.057910
-3.470240	5.927660	0.059250
-3.470590	5.928280	0.060600
-3.470460	5.928080	0.061930
-3.470350	5.927920	0.063270
-3.470540	5.928280	0.064620
-3.470430	5.928100	0.065950
-3.470570	5.928370	0.067300
-3.470260	5.927880	0.068630
-3.470490	5.928290	0.069980
-3.470510	5.928340	0.071320
-3.471250	5.929640	0.072670
-3.473800	5.934010	0.074070
-3.474650	5.935480	0.075430
-3.476200	5.938150	0.076810
-3.481290	5.946870	0.078260
-3.480250	5.945970	-0.020960
-3.476970	5.940380	-0.019590
-3.474180	5.935640	-0.018240
-3.471030	5.930280	-0.016880
-3.470430	5.929290	-0.015540
-3.470030	5.928620	-0.014190
-3.470210	5.928960	-0.012850
-3.470170	5.928910	-0.011510
-3.470180	5.928960	-0.010170
-3.469850	5.928420	-0.008830
-3.470170	5.928990	-0.007490
-3.470140	5.928960	-0.006150
-3.469850	5.928490	-0.004810
-3.469940	5.928680	-0.003470
-3.469970	5.928740	-0.002130
-3.469990	5.928800	-0.000790
-3.469950	5.928750	0.000550
-3.469840	5.928600	0.001890
-3.470240	5.929300	0.003230
-3.469710	5.928420	0.004570
-3.469680	5.928390	0.005910
-3.469800	5.928630	0.007250
-3.469950	5.928900	0.008590
-3.469830	5.928730	0.009930
-3.469720	5.928570	0.011270
-3.469460	5.928150	0.012610
-3.469820	5.928780	0.013950
-3.469480	5.928220	0.015290
-3.469680	5.928600	0.016630
-3.469740	5.928730	0.017970
-3.469920	5.929050	0.019310
-3.470000	5.929210	0.020650
-3.469740	5.928800	0.021990
-3.469580	5.928550	0.023330
-3.469630	5.928650	0.024670
-3.469580	5.928600	0.026010
-3.469830	5.929040	0.027360
-3.469840	5.929090	0.028700
-3.469340	5.928250	0.030030
-3.469610	5.928750	0.031380
-3.469430	5.928460	0.032710
-3.469800	5.929120	0.034060
-3.469350	5.928370	0.035390
-3.469450	5.928560	0.036730
-3.470030	5.929580	0.038080
-3.469250	5.928280	0.039410
-3.469680	5.929040	0.040760
-3.469810	5.929280	0.042100
-3.469420	5.928640	0.043440
-3.469510	5.928830	0.044780
-3.469380	5.928620	0.046120
-3.469310	5.928520	0.047460
-3.469200	5.928360	0.048800
-3.469600	5.929070	0.050140
-3.469300	5.928580	0.051480
-3.469200	5.928440	0.052820
-3.469660	5.929250	0.054160
-3.469250	5.928570	0.055500
-3.469000	5.928170	0.056830
-3.468860	5.927950	0.058170
-3.469700	5.929410	0.059530
-3.469360	5.928860	0.060860
-3.469270	5.928720	0.062200
-3.468620	5.927640	0.063530
-3.469050	5.928410	0.064880
-3.469430	5.929100	0.067570
-3.469140	5.928640	0.068910
-3.469330	5.928980	0.070250
-3.469590	5.929450	0.071600
-3.470730	5.931420	0.072960
-3.472530	5.934530	0.074340
-3.473390	5.936020	0.075700
-3.475900	5.940330	0.077100
-3.476610	5.942520	-0.020240
-3.474480	5.938900	-0.018890
-3.470760	5.932570	-0.017530
-3.469780	5.930930	-0.016180
-3.469650	5.930720	-0.014840
-3.468810	5.929310	-0.013500
-3.469080	5.929790	-0.012160
-3.469590	5.930700	-0.010820
-3.469200	5.930040	-0.009480
-3.468880	5.929520	-0.008140
-3.468700	5.929240	-0.006800
-3.469220	5.930160	-0.005460
-3.468890	5.929620	-0.004120
-3.469320	5.930370	-0.002780
-3.468790	5.929500	-0.001440
-3.468800	5.929530	-0.000100
-3.468810	5.929570	0.001250
-3.468990	5.929900	0.002590
-3.468820	5.929640	0.003930
-3.469020	5.930000	0.005270
-3.468900	5.929830	0.006610
-3.468320	5.928860	0.007950
-3.468730	5.929580	0.009290
-3.468990	5.930050	0.010630
-3.468830	5.929790	0.011970
-3.468780	5.929740	0.013310
-3.468750	5.929710	0.014650
-3.468940	5.930070	0.015990
-3.468810	5.929860	0.017330
-3.468550	5.929440	0.018670
-3.469210	5.930590	0.020010
-3.469130	5.930480	0.021350
-3.468660	5.929700	0.022690
-3.468410	5.929300	0.024030
-3.468750	5.929910	0.025370
-3.468540	5.929570	0.026710
-3.468630	5.929750	0.028050
-3.468470	5.929500	0.029390
-3.468790	5.930080	0.030730
-3.468840	5.930180	0.032070
-3.468260	5.929210	0.033410
-3.468930	5.930380	0.034760
-3.468230	5.929200	0.036090
-3.468370	5.929470	0.037430
-3.468520	5.929760	0.038770
-3.468750	5.930180	0.040110
-3.468520	5.929810	0.041450
-3.468540	5.929860	0.042790
-3.468330	5.929530	0.044130
-3.468380	5.929630	0.045470
-3.468590	5.930010	0.046810
-3.468530	5.929940	0.048150
-3.468820	5.930460	0.049490
-3.468880	5.930580	0.050840
-3.468450	5.929870	0.052170
-3.468540	5.930050	0.053510
-3.468300	5.929670	0.054850
-3.468630	5.930250	0.056200
-3.468520	5.930090	0.057540
-3.468740	5.930500	0.058880
-3.468200	5.929590	0.060210
-3.468580	5.930270	0.061560
-3.468660	5.930440	0.062900
-3.468190	5.929640	0.064230
-3.468840	5.930790	0.065590
-3.468540	5.930290	0.066920
-3.468000	5.929390	0.068250
-3.468120	5.929620	0.069590
-3.468240	5.929860	0.070940
-3.468450	5.930240	0.072280
-3.470060	5.933010	0.073660
-3.471580	5.935650	0.075030
-3.472980	5.938050	0.076400
-3.476490	5.944090	0.077830
-3.476220	5.944430	-0.020510
-3.473920	5.940520	-0.019160
-3.470870	5.935340	-0.017800
-3.468740	5.931710	-0.016450
-3.468520	5.931370	-0.015110
-3.468200	5.930840	-0.013770
-3.467910	5.930370	-0.012430
-3.468040	5.930620	-0.011090
-3.467850	5.930320	-0.009750
-3.468090	5.930750	-0.008410
-3.467830	5.930340	-0.007070
-3.468120	5.930860	-0.005730
-3.467800	5.930330	-0.004390
-3.467670	5.930140	-0.003050
-3.468410	5.931420	-0.001710
-3.468030	5.930800	-0.000370
-3.467490	5.929910	0.000970
-3.467580	5.930080	0.002310
-3.468020	5.930860	0.003650
-3.467790	5.930480	0.004990
-3.467810	5.930550	0.006330
-3.467830	5.930610	0.007670
-3.468160	5.931190	0.009020
-3.468140	5.931190	0.010360
-3.467880	5.930770	0.011690
-3.467800	5.930660	0.013030
-3.467680	5.930480	0.014370
-3.467930	5.930930	0.015710
-3.467890	5.930880	0.017050
-3.468000	5.931090	0.018390
-3.467850	5.930870	0.019730
-3.467850	5.930880	0.021070
-3.467840	5.930900	0.022410
-3.467340	5.930060	0.023750
-3.467750	5.930780	0.025090
-3.467940	5.931140	0.026430
-3.467800	5.930930	0.027770
-3.467830	5.931010	0.029120
-3.467340	5.930200	0.030450
-3.467890	5.931160	0.031800
-3.467460	5.930440	0.033140
-3.467380	5.930330	0.034480
-3.467690	5.930890	0.035820
-3.467200	5.930070	0.037160
-3.467850	5.931200	0.038500
-3.467290	5.930270	0.039840
-3.467570	5.930770	0.041180
-3.467810	5.931220	0.042530
-3.467690	5.931030	0.043870
-3.468030	5.931640	0.045210
-3.467220	5.930280	0.046540
-3.467630	5.931000	0.047890
-3.467100	5.930130	0.049220
-3.467330	5.930540	0.050560
-3.467430	5.930740	0.051900
-3.467660	5.931160	0.053250
-3.467550	5.930990	0.054590
-3.467620	5.931140	0.055930
-3.467000	5.930110	0.057260
-3.467400	5.930800	0.058600
-3.467420	5.930870	0.059940
-3.467140	5.930410	0.061270
-3.467590	5.931200	0.062620
-3.467200	5.930570	0.063950
-3.466690	5.929720	0.065280
-3.467230	5.930660	0.066630
-3.467350	5.930890	0.067970
-3.467330	5.930880	0.069310
-3.467490	5.931180	0.070650
-3.467780	5.931710	0.072000
-3.468990	5.933800	0.073370
-3.470460	5.936340	0.074740
-3.471720	5.938510	0.076110
-3.474690	5.943610	0.077520
-3.475270	5.945480	-0.020390
-3.472440	5.940670	-0.019030
-3.470030	5.936570	-0.017670
-3.467490	5.932270	-0.016320
-3.467340	5.932030	-0.014980
-3.467220	5.931850	-0.013640
-3.467490	5.932330	-0.012300
-3.466860	5.931280	-0.010960
-3.467230	5.931940	-0.009620
-3.467300	5.932080	-0.008280
-3.467180	5.931910	-0.006940
-3.466740	5.931170	-0.005600
-3.466930	5.931520	-0.004260
-3.466780	5.931300	-0.002920
-3.466650	5.931090	-0.001580
-3.466610	5.931040	-0.000240
-3.466830	5.931450	0.001100
-3.466720	5.931290	0.002440
-3.466870	5.931560	0.003780
-3.466960	5.931750	0.005120
