-5.963830	3.597350	-1.538080
-5.963540	3.597190	-1.536590
-5.963520	3.597190	-1.535160
-5.964270	3.597660	-1.533940
-5.963880	3.597440	-1.532420
-5.962980	3.596910	-1.530760
-5.963830	3.597440	-1.529560
-5.963480	3.597250	-1.528050
-5.963390	3.597210	-1.526610
-5.962860	3.596910	-1.525050
-5.964380	3.597840	-1.524020
-5.964260	3.597780	-1.522570
-5.963570	3.597380	-1.520980
-5.963530	3.597370	-1.519550
-5.962910	3.597010	-1.517970
-5.963840	3.597590	-1.516790
-5.962970	3.597080	-1.515150
-5.965460	3.598600	-1.514360
-5.967970	3.600130	-1.513580
-5.971120	3.602040	-1.512960
-5.975710	3.604830	-1.512700
-5.979090	3.606880	-1.512140
-5.968410	3.601010	-1.606210
-5.965010	3.598980	-1.603870
-5.963850	3.598290	-1.602130
-5.963660	3.598190	-1.600660
-5.963510	3.598120	-1.599190
-5.963450	3.598100	-1.597750
-5.963510	3.598150	-1.596330
-5.963230	3.597990	-1.594830
-5.963120	3.597940	-1.593380
-5.963720	3.598320	-1.592110
-5.963440	3.598170	-1.590610
-5.963080	3.597970	-1.589090
-5.963570	3.598280	-1.587790
-5.962880	3.597880	-1.586180
-5.963320	3.598160	-1.584880
-5.963780	3.598450	-1.583580
-5.963210	3.598130	-1.582000
-5.963350	3.598220	-1.580610
-5.961940	3.597390	-1.578820
-5.963930	3.598610	-1.577920
-5.964070	3.598710	-1.576530
-5.962720	3.597910	-1.574750
-5.962160	3.597580	-1.573180
-5.963840	3.598610	-1.572200
-5.963350	3.598340	-1.570650
-5.962190	3.597650	-1.568920
-5.963360	3.598370	-1.567800
-5.963090	3.598220	-1.566310
-5.962910	3.598140	-1.564840
-5.963520	3.598520	-1.563570
-5.962670	3.598020	-1.561930
-5.963030	3.598260	-1.560600
-5.963290	3.598430	-1.559240
-5.963200	3.598390	-1.557800
-5.963920	3.598840	-1.556560
-5.962850	3.598210	-1.554860
-5.962620	3.598090	-1.553380
-5.963390	3.598570	-1.552160
-5.963560	3.598690	-1.550780
-5.962580	3.598110	-1.549110
-5.962830	3.598280	-1.547750
-5.962500	3.598100	-1.546240
-5.963120	3.598480	-1.544980
-5.963420	3.598680	-1.543640
-5.963230	3.598580	-1.542170
-5.963000	3.598460	-1.540690
-5.963070	3.598520	-1.539280
-5.963290	3.598670	-1.537920
-5.963520	3.598820	-1.536560
-5.964180	3.599230	-1.535310
-5.963620	3.598910	-1.533740
-5.963060	3.598590	-1.532180
-5.962930	3.598530	-1.530720
-5.963420	3.598840	-1.529430
-5.962260	3.598150	-1.527710
-5.961090	3.597470	-1.525990
-5.962210	3.598150	-1.524860
-5.962060	3.598080	-1.523400
-5.962490	3.598350	-1.522090
-5.962740	3.598520	-1.520740
-5.961820	3.597980	-1.519080
-5.962720	3.598540	-1.517900
-5.962020	3.598130	-1.516300
-5.962710	3.598570	-1.515060
-5.964780	3.599830	-1.514160
-5.967360	3.601400	-1.513400
-5.971500	3.603920	-1.513030
-5.975450	3.606320	-1.512610
-5.977800	3.607750	-1.511780
-5.976800	3.607680	-1.609460
-5.964570	3.600320	-1.604740
-5.963050	3.599420	-1.602910
-5.962640	3.599180	-1.601370
-5.962220	3.598940	-1.599830
-5.963300	3.599620	-1.598700
-5.961830	3.598740	-1.596880
-5.962720	3.599300	-1.595690
-5.963700	3.599900	-1.594530
-5.962640	3.599280	-1.592820
-5.962300	3.599090	-1.591300
-5.962560	3.599260	-1.589950
-5.962370	3.599160	-1.588470
-5.962570	3.599300	-1.587100
-5.961820	3.598860	-1.585480
-5.962420	3.599240	-1.584210
-5.961480	3.598690	-1.582540
-5.962400	3.599260	-1.581360
-5.962710	3.599460	-1.580020
-5.963130	3.599730	-1.578700
-5.961570	3.598810	-1.576870
-5.962310	3.599270	-1.575640
-5.961750	3.598950	-1.574070
-5.962440	3.599380	-1.572830
-5.962060	3.599170	-1.571310
-5.961540	3.598870	-1.569750
-5.961380	3.598790	-1.568280
-5.961090	3.598630	-1.566780
-5.962180	3.599300	-1.565650
-5.962700	3.599630	-1.564360
-5.961920	3.599180	-1.562730
-5.961140	3.598720	-1.561110
-5.960950	3.598620	-1.559630
-5.961880	3.599200	-1.558450
-5.961480	3.598970	-1.556930
-5.960840	3.598620	-1.553920
-5.962150	3.599430	-1.552830
-5.962150	3.599450	-1.551420
-5.961370	3.598990	-1.549790
-5.961760	3.599240	-1.548470
-5.961540	3.599120	-1.546990
-5.961830	3.599310	-1.545650
-5.961800	3.599310	-1.544220
-5.961550	3.599180	-1.542740
-5.961440	3.599130	-1.541290
-5.961280	3.599040	-1.539830
-5.961850	3.599400	-1.538560
-5.962000	3.599510	-1.537170
-5.962650	3.599920	-1.535920
-5.960860	3.598850	-1.534040
-5.961460	3.599230	-1.532770
-5.962310	3.599760	-1.531570
-5.960560	3.598720	-1.529700
-5.961440	3.599270	-1.528510
-5.961290	3.599190	-1.527050
-5.962410	3.599890	-1.525920
-5.961840	3.599560	-1.524360
-5.961470	3.599350	-1.522840
-5.961820	3.599570	-1.521510
-5.961540	3.599420	-1.520020
-5.961760	3.599570	-1.518660
-5.961960	3.599710	-1.517290
-5.961490	3.599440	-1.515760
-5.963550	3.600700	-1.514860
-5.964990	3.601580	-1.513810
-5.968290	3.603590	-1.513230
-5.971470	3.605530	-1.512620
-5.975450	3.607940	-1.512200
-5.978330	3.609700	-1.511510
-5.966500	3.603090	-1.606240
-5.962040	3.600420	-1.603610
-5.961670	3.600210	-1.602090
-5.961560	3.600160	-1.600630
-5.962100	3.600500	-1.599350
-5.961040	3.599880	-1.597640
-5.961870	3.600390	-1.596440
-5.961260	3.600040	-1.594850
-5.959980	3.599290	-1.593090
-5.961330	3.600120	-1.592020
-5.962040	3.600570	-1.590790
-5.961130	3.600040	-1.589120
-5.961260	3.600130	-1.587730
-5.960780	3.599860	-1.586180
-5.961290	3.600190	-1.584890
-5.960980	3.600020	-1.583390
-5.960130	3.599520	-1.581740
-5.961490	3.600360	-1.580680
-5.960270	3.599640	-1.578930
-5.962010	3.600700	-1.577970
-5.961110	3.600170	-1.576300
-5.960920	3.600070	-1.574830
-5.960970	3.600110	-1.573420
-5.961020	3.600160	-1.572020
-5.961220	3.600290	-1.570650
-5.960240	3.599720	-1.568970
-5.960990	3.600180	-1.567740
-5.960520	3.599910	-1.566190
-5.960100	3.599670	-1.564660
-5.959670	3.599430	-1.563130
-5.960860	3.600160	-1.562020
-5.961320	3.600450	-1.560720
-5.960940	3.600250	-1.559200
-5.960830	3.600190	-1.557750
-5.959960	3.599690	-1.556100
-5.960750	3.600180	-1.554880
-5.960960	3.600320	-1.553520
-5.960000	3.599750	-1.551840
-5.961280	3.600550	-1.550760
-5.961010	3.600400	-1.549260
-5.960910	3.600350	-1.547820
-5.960860	3.600330	-1.546380
-5.960730	3.600270	-1.544930
-5.959860	3.599760	-1.543280
-5.960430	3.600130	-1.542010
-5.960920	3.600440	-1.540720
-5.960620	3.600270	-1.539220
-5.960400	3.600160	-1.537740
-5.960690	3.600340	-1.536400
-5.960990	3.600540	-1.535060
-5.961000	3.600560	-1.533640
-5.960680	3.600390	-1.532140
-5.960200	3.600110	-1.530590
-5.960440	3.600270	-1.529240
-5.960270	3.600190	-1.527770
-5.961070	3.600680	-1.526560
-5.960840	3.600560	-1.525080
-5.960710	3.600500	-1.523630
-5.960580	3.600440	-1.522180
-5.960770	3.600570	-1.520810
-5.961020	3.600730	-1.519450
-5.960470	3.600420	-1.517900
-5.960620	3.600530	-1.516520
-5.961630	3.601150	-1.515360
-5.963590	3.602350	-1.514440
-5.966620	3.604200	-1.513790
-5.970810	3.606740	-1.513430
-5.972890	3.608010	-1.512530
-5.975930	3.609860	-1.511880
-5.980490	3.612630	-1.511610
-5.965900	3.604350	-1.606400
-5.962010	3.602010	-1.603930
-5.960550	3.601150	-1.602110
-5.960690	3.601250	-1.600720
-5.960480	3.601140	-1.599240
-5.960260	3.601020	-1.597760
-5.959560	3.600620	-1.596150
-5.959900	3.600840	-1.594810
-5.959900	3.600850	-1.593390
-5.960470	3.601210	-1.592110
-5.959970	3.600930	-1.590560
-5.960340	3.601160	-1.589230
-5.959860	3.600890	-1.587680
-5.959340	3.600590	-1.586110
-5.960520	3.601320	-1.585010
-5.960010	3.601030	-1.583440
-5.959800	3.600920	-1.581970
-5.959820	3.600950	-1.580550
-5.960470	3.601350	-1.579300
-5.959370	3.600710	-1.577580
-5.959940	3.601070	-1.576310
-5.959320	3.600710	-1.574720
-5.959290	3.600710	-1.573290
-5.960230	3.601290	-1.572120
-5.959020	3.600580	-1.570370
-5.959850	3.601090	-1.569170
-5.959780	3.601070	-1.567730
-5.958650	3.600400	-1.566010
-5.958770	3.600490	-1.564620
-5.960170	3.601350	-1.563560
-5.959580	3.601010	-1.561980
-5.959570	3.601020	-1.560560
-5.960290	3.601470	-1.559320
-5.958690	3.600520	-1.557480
-5.960060	3.601360	-1.556420
-5.959080	3.600780	-1.554740
-5.959990	3.601350	-1.553560
-5.959120	3.600840	-1.551910
-5.960660	3.601790	-1.550890
-5.959920	3.601360	-1.549280
-5.959520	3.601130	-1.547760
-5.959890	3.601370	-1.546430
-5.959420	3.601100	-1.544890
-5.959200	3.600990	-1.543420
-5.959390	3.601110	-1.542050
-5.959880	3.601430	-1.540760
-5.959700	3.601330	-1.539290
-5.960040	3.601560	-1.537960
-5.959070	3.600980	-1.536290
-5.959370	3.601180	-1.534940
-5.958990	3.600970	-1.533430
-5.959490	3.601290	-1.532140
-5.958880	3.600930	-1.530560
-5.959000	3.601020	-1.529170
-5.958840	3.600940	-1.527710
-5.959960	3.601630	-1.526580
-5.959600	3.601430	-1.525070
-5.958950	3.601060	-1.523490
-5.959080	3.601150	-1.522100
-5.958890	3.601050	-1.520630
-5.959830	3.601630	-1.519450
-5.960090	3.601810	-1.518100
-5.959880	3.601700	-1.516630
-5.959940	3.601740	-1.515220
-5.962040	3.603030	-1.514340
-5.966090	3.605490	-1.513950
-5.971000	3.608480	-1.513780
-5.973900	3.610240	-1.513090
-5.975180	3.611030	-1.511990
-5.980220	3.614090	-1.511840
-5.962580	3.603890	-1.605870
-5.959420	3.601990	-1.603590
-5.960170	3.602460	-1.602360
-5.959130	3.601840	-1.600660
-5.959500	3.602080	-1.599330
-5.958460	3.601470	-1.597620
-5.959430	3.602070	-1.596460
-5.958650	3.601620	-1.594820
-5.959060	3.601880	-1.593510
-5.959880	3.602390	-1.592300
-5.958780	3.601740	-1.590590
-5.958630	3.601670	-1.589120
-5.958750	3.601750	-1.587730
-5.959420	3.602180	-1.586490
-5.958940	3.601900	-1.584930
-5.959170	3.602050	-1.583570
-5.958270	3.601530	-1.581910
-5.958360	3.601590	-1.580510
-5.959450	3.602270	-1.579380
-5.958910	3.601960	-1.577810
-5.958470	3.601710	-1.576270
-5.959000	3.602050	-1.574980
-5.958900	3.602000	-1.573530
-5.958720	3.601910	-1.572060
-5.957290	3.601060	-1.570260
-5.959110	3.602180	-1.569310
-5.959680	3.602540	-1.568040
-5.959340	3.602350	-1.566530
-5.957940	3.601530	-1.564740
-5.958480	3.601870	-1.563460
-5.958780	3.602070	-1.562110
-5.958520	3.601930	-1.560620
-5.958540	3.601960	-1.559210
-5.958530	3.601970	-1.557780
-5.957800	3.601550	-1.556170
-5.957770	3.601550	-1.554750
-5.957920	3.601650	-1.553360
-5.958190	3.601830	-1.552010
-5.958330	3.601930	-1.550630
-5.960070	3.603000	-1.549660
-5.959210	3.602490	-1.548020
-5.957860	3.601690	-1.546250
-5.958070	3.601830	-1.544880
-5.958740	3.602260	-1.543630
-5.958530	3.602140	-1.542150
-5.958460	3.602120	-1.540720
-5.958410	3.602110	-1.539280
-5.958480	3.602160	-1.537880
-5.958680	3.602300	-1.536510
-5.958010	3.601910	-1.534920
-5.958550	3.602250	-1.533640
-5.958320	3.602130	-1.532160
-5.959630	3.602940	-1.531080
-5.958110	3.602040	-1.529270
-5.957940	3.601950	-1.527800
-5.958850	3.602510	-1.526620
-5.957950	3.601980	-1.524970
-5.958020	3.602040	-1.523570
-5.958990	3.602640	-1.522400
-5.958920	3.602610	-1.520960
-5.958260	3.602220	-1.519370
-5.958620	3.602460	-1.518040
-5.958600	3.602460	-1.516620
-5.960000	3.603320	-1.515560
-5.961140	3.604020	-1.514430
-5.965680	3.606780	-1.514160
-5.971580	3.610360	-1.514240
-5.974650	3.612230	-1.513590
-5.976470	3.613350	-1.512630
-5.979830	3.615390	-1.512060
-5.971750	3.611000	-1.609680
-5.960050	3.603950	-1.605100
-5.959240	3.603470	-1.603460
-5.958540	3.603060	-1.601840
-5.959190	3.603480	-1.600590
-5.958190	3.602880	-1.598900
-5.958120	3.602860	-1.597450
-5.959010	3.603410	-1.596270
-5.958920	3.603370	-1.594820
-5.958560	3.603170	-1.593300
-5.957440	3.602510	-1.591570
-5.958230	3.603000	-1.590360
-5.957970	3.602870	-1.588870
-5.958480	3.603190	-1.587580
-5.957400	3.602550	-1.585860
-5.956580	3.602070	-1.584220
-5.958470	3.603230	-1.583300
-5.957240	3.602500	-1.581550
-5.957160	3.602470	-1.580100
-5.957700	3.602810	-1.578820
-5.957680	3.602810	-1.577390
-5.958100	3.603080	-1.576080
-5.958510	3.603350	-1.574760
-5.957210	3.602580	-1.573000
-5.957260	3.602620	-1.571580
-5.956290	3.602060	-1.569910
-5.957320	3.602690	-1.568750
-5.957720	3.602950	-1.567440
-5.956860	3.602450	-1.565790
-5.957530	3.602870	-1.564540
-5.957720	3.603000	-1.563160
-5.956990	3.602570	-1.561550
-5.957470	3.602880	-1.560250
-5.957060	3.602650	-1.558720
-5.956900	3.602560	-1.557260
-5.957390	3.602880	-1.555970
-5.957270	3.602820	-1.554510
-5.957860	3.603190	-1.553250
-5.958240	3.603440	-1.551920
-5.957260	3.602860	-1.550250
-5.957800	3.603200	-1.548970
-5.957300	3.602910	-1.547420
-5.957950	3.603330	-1.546160
-5.958030	3.603390	-1.544770
-5.957170	3.602880	-1.543120
-5.957190	3.602910	-1.541710
-5.958310	3.603610	-1.540580
-5.957000	3.602830	-1.538820
-5.958550	3.603790	-1.537800
-5.958660	3.603870	-1.536410
-5.957660	3.603280	-1.534730
-5.957420	3.603150	-1.533250
-5.957510	3.603220	-1.531860
-5.958450	3.603800	-1.530680
-5.957240	3.603090	-1.528950
-5.957770	3.603420	-1.527660
-5.957380	3.603210	-1.526150
-5.958460	3.603870	-1.525000
-5.957100	3.603070	-1.523240
-5.957190	3.603130	-1.521840
-5.956810	3.602920	-1.520320
-5.957530	3.603370	-1.519090
-5.957230	3.603210	-1.517590
-5.957210	3.603210	-1.516170
-5.958640	3.604090	-1.515110
-5.961480	3.605830	-1.514420
-5.968200	3.609900	-1.514700
-5.975040	3.614060	-1.515020
-5.977560	3.615600	-1.514230
-5.978490	3.616170	-1.513050
-5.982160	3.618410	-1.512550
-5.961280	3.606300	-1.606710
-5.957940	3.604290	-1.604390
-5.957400	3.603980	-1.602810
-5.957040	3.603780	-1.601290
-5.957700	3.604190	-1.600050
-5.957130	3.603870	-1.598470
-5.956700	3.603620	-1.596930
-5.956530	3.603540	-1.595460
-5.957180	3.603940	-1.594210
-5.957610	3.604220	-1.592900
-5.957200	3.603990	-1.591370
-5.955910	3.603230	-1.589600
-5.957410	3.604150	-1.588580
-5.955790	3.603180	-1.586730
-5.956750	3.603780	-1.585560
-5.956790	3.603820	-1.584140
-5.956390	3.603600	-1.582620
-5.956260	3.603530	-1.581160
-5.955680	3.603190	-1.579580
-5.956260	3.603560	-1.578310
-5.955060	3.602850	-1.576570
-5.954330	3.602430	-1.574960
-5.955760	3.603310	-1.573910
-5.956290	3.603640	-1.572630
-5.955620	3.603250	-1.571030
-5.955570	3.603240	-1.569600
-5.955810	3.603400	-1.568240
-5.954520	3.602640	-1.566480
-5.955550	3.603270	-1.565330
-5.954810	3.602840	-1.563710
-5.956040	3.603600	-1.562610
-5.955660	3.603390	-1.561090
-5.954700	3.602820	-1.559420
-5.955820	3.603520	-1.558290
-5.956280	3.603810	-1.556990
-5.956030	3.603680	-1.555500
-5.955850	3.603580	-1.554030
-5.955750	3.603540	-1.552590
-5.956150	3.603800	-1.551270
-5.956470	3.604010	-1.549940
-5.955710	3.603560	-1.548320
-5.955880	3.603680	-1.546950
-5.956320	3.603960	-1.545640
-5.956920	3.604340	-1.544380
-5.955910	3.603750	-1.542700
-5.955580	3.603560	-1.541190
-5.956440	3.604100	-1.540000
-5.956050	3.603880	-1.538480
-5.957120	3.604540	-1.537330
-5.956660	3.604280	-1.535790
-5.956810	3.604380	-1.534410
-5.955690	3.603730	-1.532710
-5.957830	3.605030	-1.531830
-5.957110	3.604610	-1.530230
-5.956670	3.604370	-1.528700
-5.956750	3.604430	-1.527300
-5.956360	3.604210	-1.525780
-5.955730	3.603840	-1.524200
-5.955270	3.603580	-1.522670
-5.956220	3.604170	-1.521490
-5.956370	3.604280	-1.520110
-5.955630	3.603840	-1.518510
-5.957020	3.604700	-1.517440
-5.957490	3.605000	-1.516150
-5.957970	3.605310	-1.514850
-5.962580	3.608120	-1.514610
-5.970330	3.612820	-1.515160
-5.978500	3.617780	-1.515810
-5.981880	3.619840	-1.515240
-5.983570	3.620870	-1.514250
-5.957250	3.605460	-1.605460
-5.956830	3.605220	-1.603920
-5.955430	3.604390	-1.602120
-5.956390	3.604990	-1.600950
-5.956080	3.604820	-1.599440
-5.956650	3.605180	-1.598170
-5.956360	3.605020	-1.596670
-5.955670	3.604620	-1.595060
-5.956120	3.604910	-1.593750
-5.955540	3.604570	-1.592170
-5.955740	3.604710	-1.590800
-5.955720	3.604710	-1.589380
-5.955330	3.604490	-1.587850
-5.955280	3.604470	-1.586410
-5.955160	3.604420	-1.584960
-5.955230	3.604470	-1.583550
-5.955150	3.604460	-1.580690
-5.953700	3.603600	-1.578880
-5.952820	3.603080	-1.577230
-5.952330	3.602800	-1.575670
-5.952100	3.602680	-1.574190
-5.951060	3.602060	-1.572490
-5.950500	3.601740	-1.570920
-5.950230	3.601590	-1.569430
-5.949620	3.601240	-1.567850
-5.949520	3.601200	-1.566400
-5.950500	3.601800	-1.565240
-5.951210	3.602250	-1.564010
-5.952300	3.602920	-1.562870
-5.952300	3.602940	-1.561450
-5.953260	3.603540	-1.560280
-5.954100	3.604060	-1.559080
-5.954570	3.604360	-1.557780
-5.954860	3.604550	-1.556440
-5.954320	3.604240	-1.554880
-5.955630	3.605050	-1.553800
-5.955020	3.604700	-1.552220
-5.955330	3.604900	-1.550880
-5.954840	3.604620	-1.549330
-5.954820	3.604630	-1.547910
-5.955120	3.604820	-1.546570
-5.954770	3.604630	-1.545060
-5.955040	3.604800	-1.543710
-5.955880	3.605330	-1.542510
-5.955010	3.604820	-1.540860
-5.955230	3.604960	-1.539500
-5.954370	3.604470	-1.537860
-5.955630	3.605240	-1.536770
-5.955340	3.605080	-1.535270
-5.954530	3.604610	-1.533650
-5.955720	3.605350	-1.532540
-5.955090	3.604980	-1.530950
-5.955860	3.605460	-1.529730
-5.955950	3.605530	-1.528340
-5.954490	3.604660	-1.526540
-5.955060	3.605020	-1.525270
-5.955410	3.605250	-1.523940
-5.954960	3.604990	-1.522410
-5.954580	3.604780	-1.520890
-5.955350	3.605260	-1.519670
-5.955220	3.605200	-1.518220
-5.956150	3.605780	-1.517030
-5.955840	3.605610	-1.515530
-5.958410	3.607180	-1.514770
-5.963340	3.610180	-1.514600
-5.973200	3.616160	-1.515690
-5.955540	3.606030	-1.605190
-5.955400	3.605950	-1.603730
-5.955470	3.606020	-1.602320
-5.954010	3.605140	-1.600500
-5.955290	3.605930	-1.599420
-5.955330	3.605980	-1.598010
-5.954930	3.605750	-1.596470
-5.954460	3.605480	-1.594920
-5.954760	3.605680	-1.593570
-5.955080	3.605890	-1.592230
-5.954580	3.605600	-1.590680
-5.954710	3.605690	-1.589280
-5.954200	3.605400	-1.587720
-5.955060	3.605940	-1.586530
-5.954360	3.605530	-1.584920
-5.951940	3.604080	-1.582850
-5.950450	3.603200	-1.581030
-5.948570	3.602080	-1.579110
-5.944930	3.599890	-1.576720
-5.938670	3.596130	-1.572220
-5.934840	3.593830	-1.569790
-5.934130	3.593410	-1.568180
-5.933650	3.593130	-1.566640
-5.933920	3.593310	-1.565290
-5.931830	3.592070	-1.563320
-5.933120	3.592860	-1.562240
-5.933790	3.593290	-1.561000
-5.936310	3.594820	-1.560250
-5.937110	3.595320	-1.559040
-5.938660	3.596280	-1.558030
-5.943480	3.599220	-1.557870
-5.946200	3.600880	-1.557160
-5.948750	3.602440	-1.556410
-5.950920	3.603770	-1.555560
-5.951930	3.604400	-1.554400
-5.952600	3.604810	-1.553160
-5.953870	3.605600	-1.552070
-5.953820	3.605580	-1.550630
-5.954040	3.605730	-1.549270
-5.954180	3.605830	-1.547890
-5.954700	3.606170	-1.546610
-5.953590	3.605510	-1.544900
-5.953980	3.605760	-1.543580
-5.953850	3.605700	-1.542130
-5.953410	3.605450	-1.540590
-5.953790	3.605690	-1.539270
-5.953480	3.605520	-1.537770
-5.954900	3.606400	-1.536720
-5.954280	3.606030	-1.535140
-5.954850	3.606400	-1.533860
-5.953970	3.605880	-1.532220
-5.954340	3.606120	-1.530890
-5.955360	3.606750	-1.529730
-5.954520	3.606260	-1.528100
-5.953590	3.605710	-1.526440
-5.953150	3.605460	-1.524910
-5.954280	3.606170	-1.523780
-5.954990	3.606610	-1.522540
-5.954000	3.606030	-1.520870
-5.954420	3.606300	-1.519560
-5.954340	3.606260	-1.518120
-5.954460	3.606350	-1.516730
-5.955410	3.606940	-1.515560
-5.957140	3.608000	-1.514580
-5.962710	3.611400	-1.514570
-5.983340	3.623900	-1.518390
-5.954130	3.606790	-1.604720
-5.953970	3.606710	-1.603250
-5.954220	3.606880	-1.601890
-5.952390	3.605790	-1.599970
-5.953730	3.606610	-1.598910
-5.953460	3.606470	-1.597410
-5.953660	3.606600	-1.596040
-5.954420	3.607080	-1.594820
-5.954150	3.606930	-1.593320
-5.953420	3.606500	-1.591700
-5.953320	3.606460	-1.590250
-5.952700	3.606100	-1.588660
-5.951320	3.605280	-1.586860
-5.947860	3.603200	-1.584520
-5.943370	3.600500	-1.581900
-5.938470	3.597540	-1.579180
-5.932770	3.594110	-1.576240
-5.927300	3.590810	-1.573370
-5.922700	3.588040	-1.570740
-5.919290	3.585990	-1.568420
-5.917540	3.584950	-1.566540
-5.915480	3.583710	-1.564580
-5.914640	3.583220	-1.562950
-5.914750	3.583310	-1.561570
-5.914240	3.583010	-1.560020
-5.914920	3.583440	-1.558790
-5.915890	3.584040	-1.557630
-5.916370	3.584350	-1.556350
-5.916800	3.584630	-1.555050
-5.919290	3.586150	-1.554290
-5.921000	3.587200	-1.553330
-5.924740	3.589480	-1.552890
-5.928880	3.592010	-1.552560
-5.930470	3.592980	-1.551560
-5.936210	3.596480	-1.551640
-5.941390	3.599630	-1.551580
-5.945210	3.601960	-1.551160
-5.949270	3.604440	-1.550800
-5.951400	3.605740	-1.549930
-5.952440	3.606380	-1.548780
-5.951270	3.605700	-1.547050
-5.952540	3.606480	-1.545960
-5.951310	3.605750	-1.544220
-5.953110	3.606860	-1.543270
-5.952850	3.606710	-1.541780
-5.954510	3.607740	-1.540790
-5.953940	3.607410	-1.539230
-5.953660	3.607250	-1.537730
-5.952710	3.606690	-1.536070
-5.953470	3.607170	-1.534850
-5.952950	3.606870	-1.533290
-5.953990	3.607520	-1.532140
-5.952790	3.606810	-1.530410
-5.953480	3.607240	-1.529170
-5.952740	3.606810	-1.527560
-5.953900	3.607520	-1.526440
-5.953490	3.607290	-1.524920
-5.954690	3.608030	-1.523810
-5.953580	3.607400	-1.520690
-5.953670	3.607470	-1.519290
-5.954030	3.607700	-1.517970
-5.953090	3.607140	-1.516310
-5.955020	3.608330	-1.515380
-5.957050	3.609570	-1.514480
-5.963310	3.613380	-1.514650
-5.952300	3.607310	-1.605410
-5.952860	3.607670	-1.604130
-5.952090	3.607220	-1.602500
-5.952920	3.607740	-1.601300
-5.953250	3.607950	-1.599960
-5.954270	3.608590	-1.598810
-5.952970	3.607810	-1.597040
-5.951860	3.607160	-1.595310
-5.952150	3.607350	-1.593970
-5.952470	3.607560	-1.592630
-5.950890	3.606620	-1.590780
-5.947260	3.604430	-1.588390
-5.939860	3.599960	-1.584990
-5.933700	3.596250	-1.581930
-5.925220	3.591120	-1.578250
-5.918730	3.587210	-1.575110
-5.914840	3.584870	-1.572660
-5.910820	3.582450	-1.570180
-5.909800	3.581850	-1.568490
-5.908660	3.581170	-1.566780
-5.908220	3.580920	-1.565250
-5.907770	3.580660	-1.563710
-5.907010	3.580220	-1.562100
-5.906990	3.580220	-1.560680
-5.907100	3.580310	-1.559300
-5.907670	3.580670	-1.558040
-5.907510	3.580580	-1.556580
-5.907810	3.580780	-1.555250
-5.908260	3.581070	-1.553960
-5.909600	3.581900	-1.552900
-5.910350	3.582370	-1.551690
-5.910900	3.582720	-1.550420
-5.912260	3.583560	-1.549370
-5.914440	3.584890	-1.548530
-5.916320	3.586050	-1.547610
-5.920360	3.588510	-1.547250
-5.923890	3.590670	-1.546760
-5.930480	3.594680	-1.547070
-5.936480	3.598330	-1.547220
-5.942690	3.602110	-1.547410
-5.946190	3.604240	-1.546900
-5.948920	3.605910	-1.546190
-5.950470	3.606870	-1.545180
-5.951400	3.607450	-1.544000
-5.952180	3.607940	-1.542780
-5.952140	3.607930	-1.541350
-5.951880	3.607790	-1.539860
-5.951710	3.607700	-1.538400
-5.953090	3.608550	-1.537330
-5.952120	3.607980	-1.535660
-5.952130	3.608000	-1.534240
-5.953140	3.608630	-1.533080
-5.952120	3.608030	-1.531400
-5.952340	3.608180	-1.530040
-5.952940	3.608550	-1.528770
-5.952020	3.608010	-1.527120
-5.952560	3.608360	-1.525840
-5.952150	3.608130	-1.524310
-5.952490	3.608350	-1.522980
-5.952280	3.608240	-1.521510
-5.952950	3.608660	-1.520260
-5.952640	3.608490	-1.518760
-5.952830	3.608620	-1.517390
-5.953340	3.608940	-1.516100
-5.955020	3.609980	-1.515110
-5.958410	3.612050	-1.514560
-5.968910	3.618430	-1.515800
-5.951580	3.608510	-1.605200
-5.952370	3.609010	-1.603990
-5.952330	3.609000	-1.602550
-5.951520	3.608530	-1.600910
-5.951590	3.608590	-1.599510
-5.951480	3.608540	-1.598050
-5.950600	3.608020	-1.596390
-5.951420	3.608530	-1.595190
-5.949170	3.607180	-1.593160
-5.943880	3.603990	-1.590320
-5.934950	3.598580	-1.586510
-5.924700	3.592390	-1.582360
-5.916660	3.587530	-1.578790
-5.911070	3.584150	-1.575890
-5.908700	3.582720	-1.573840
-5.906110	3.581170	-1.571740
-5.905660	3.580920	-1.570210
-5.904780	3.580400	-1.568560
-5.903890	3.579870	-1.566910
-5.903410	3.579600	-1.565370
-5.903270	3.579530	-1.563930
-5.903590	3.579740	-1.562600
-5.902900	3.579340	-1.561010
-5.903240	3.579560	-1.559690
-5.902980	3.579410	-1.558210
-5.903650	3.579840	-1.556980
-5.903610	3.579830	-1.555560
-5.904360	3.580300	-1.554350
-5.904520	3.580410	-1.552980
-5.905130	3.580800	-1.551730
-5.905740	3.581180	-1.550480
-5.906710	3.581790	-1.549330
-5.906890	3.581910	-1.547970
-5.908130	3.582680	-1.546880
-5.909340	3.583430	-1.545790
-5.911090	3.584510	-1.544830
-5.912670	3.585480	-1.543830
-5.916070	3.587560	-1.543310
-5.919640	3.589740	-1.542830
-5.926460	3.593890	-1.543190
-5.933110	3.597940	-1.543500
-5.938880	3.601450	-1.543590
-5.945430	3.605430	-1.543870
-5.948680	3.607420	-1.543300
-5.950630	3.608620	-1.542380
-5.949950	3.608230	-1.540790
-5.950180	3.608380	-1.539430
-5.950400	3.608530	-1.538070
-5.951490	3.609210	-1.536930
-5.951030	3.608940	-1.535390
-5.951310	3.609130	-1.534050
-5.951410	3.609200	-1.532660
-5.950560	3.608700	-1.531020
-5.952000	3.609590	-1.529970
-5.952090	3.609660	-1.528570
-5.951130	3.609100	-1.526910
-5.950790	3.608910	-1.525410
-5.950870	3.608970	-1.524010
-5.952080	3.609720	-1.522900
-5.951230	3.609220	-1.521270
-5.950580	3.608840	-1.519680
-5.950800	3.608990	-1.518320
-5.951740	3.609580	-1.517140
-5.951590	3.609500	-1.515690
-5.952850	3.610280	-1.514590
-5.957650	3.613210	-1.514390
-5.977920	3.625520	-1.518120
-5.951210	3.609900	-1.605160
-5.951000	3.609780	-1.603670
-5.950760	3.609660	-1.602190
-5.950020	3.609220	-1.600560
-5.949720	3.609060	-1.599060
-5.949360	3.608850	-1.597540
-5.948090	3.608090	-1.595770
-5.942940	3.604990	-1.592960
-5.933880	3.599510	-1.589120
-5.922310	3.592510	-1.584600
-5.913890	3.587420	-1.580930
-5.908210	3.583990	-1.578000
-5.905970	3.582650	-1.575990
-5.904390	3.581710	-1.574150
-5.902870	3.580800	-1.572330
-5.902270	3.580450	-1.570760
-5.901250	3.579850	-1.569080
-5.900830	3.579610	-1.567560
-5.900530	3.579440	-1.566070
-5.900190	3.579250	-1.564570
-5.899620	3.578920	-1.563010
-5.899970	3.579150	-1.561690
-5.899750	3.579030	-1.560220
-5.899290	3.578770	-1.558690
-5.899930	3.579170	-1.557450
-5.900160	3.579330	-1.556100
-5.900580	3.579600	-1.554810
-5.901020	3.579880	-1.553510
-5.900680	3.579690	-1.552010
-5.901660	3.580300	-1.550860
-5.901950	3.580490	-1.549530
-5.903170	3.581250	-1.548440
-5.903800	3.581640	-1.547190
-5.904490	3.582080	-1.545970
-5.905620	3.582780	-1.544850
-5.906720	3.583470	-1.543730
-5.907700	3.584070	-1.542570
-5.909620	3.585250	-1.541660
-5.911690	3.586520	-1.540790
-5.914200	3.588060	-1.540040
-5.919010	3.591000	-1.539870
-5.923940	3.594000	-1.539740
-5.932660	3.599310	-1.540590
-5.941420	3.604640	-1.541450
-5.946450	3.607700	-1.541330
-5.948320	3.608860	-1.540400
-5.948520	3.608990	-1.539030
-5.950860	3.610430	-1.538220
-5.950090	3.609980	-1.536600
-5.949060	3.609370	-1.534920
-5.949860	3.609870	-1.533710
-5.948610	3.609130	-1.531970
-5.949940	3.609950	-1.530900
-5.950160	3.610100	-1.529530
-5.949360	3.609620	-1.527910
-5.949490	3.609720	-1.526530
-5.950270	3.610210	-1.525310
-5.950840	3.610570	-1.524040
-5.949870	3.610000	-1.522370
-5.949380	3.609720	-1.520830
-5.950590	3.610470	-1.519720
-5.949660	3.609920	-1.518070
-5.950000	3.610140	-1.516730
-5.950930	3.610720	-1.515550
-5.953210	3.612120	-1.514720
-5.956820	3.614320	-1.514210
-5.945290	3.607870	-1.604670
-5.949420	3.610390	-1.604360
-5.949230	3.610290	-1.602890
-5.948720	3.610000	-1.601330
-5.949270	3.610340	-1.600050
-5.947840	3.609500	-1.598240
-5.945180	3.607900	-1.596100
-5.934860	3.601650	-1.591910
-5.921850	3.593780	-1.587010
-5.911400	3.587450	-1.582790
-5.905830	3.584090	-1.579890
-5.903670	3.582790	-1.577900
-5.902030	3.581810	-1.576050
-5.900750	3.581050	-1.574290
-5.899930	3.580570	-1.572660
-5.898820	3.579910	-1.570960
-5.898720	3.579870	-1.569520
-5.898530	3.579770	-1.568060
-5.897860	3.579380	-1.566470
-5.897140	3.578960	-1.564870
-5.897610	3.579260	-1.563590
-5.897040	3.578930	-1.562020
-5.897130	3.579000	-1.560640
-5.897150	3.579020	-1.559230
-5.897600	3.579310	-1.557940
-5.897670	3.579370	-1.556550
-5.898130	3.579670	-1.555260
-5.898020	3.579610	-1.553820
-5.898090	3.579670	-1.552430
-5.899000	3.580240	-1.551260
-5.899410	3.580510	-1.549950
-5.899660	3.580670	-1.548610
-5.900800	3.581380	-1.547500
-5.901110	3.581580	-1.546170
-5.902160	3.582230	-1.545040
-5.903160	3.582860	-1.543890
-5.903930	3.583340	-1.542680
-5.904850	3.583920	-1.541520
-5.907320	3.585450	-1.539340
-5.909650	3.586870	-1.538540
-5.911850	3.588230	-1.537700
-5.915610	3.590530	-1.537270
-5.921270	3.593970	-1.537330
-5.932430	3.600760	-1.538810
-5.939190	3.604880	-1.539140
-5.944340	3.608020	-1.539060
-5.947420	3.609900	-1.538430
-5.948390	3.610510	-1.537260
-5.948310	3.610480	-1.535830
-5.948770	3.610770	-1.534520
-5.947780	3.610180	-1.532850
-5.948470	3.610620	-1.531610
-5.949130	3.611040	-1.530360
-5.949330	3.611180	-1.528990
-5.948610	3.610750	-1.527390
-5.949660	3.611400	-1.526240
-5.949870	3.611550	-1.524880
-5.948970	3.611020	-1.523230
-5.949750	3.611510	-1.522010
-5.949370	3.611290	-1.520490
-5.948500	3.610780	-1.518860
-5.949290	3.611280	-1.517640
-5.949200	3.611240	-1.516200
-5.950450	3.612010	-1.515100
-5.954010	3.614190	-1.514590
-5.958860	3.617150	-1.514400
-5.946780	3.610400	-1.604660
-5.947520	3.610860	-1.603440
-5.947770	3.611030	-1.602080
-5.946560	3.610310	-1.600340
-5.942380	3.607790	-1.597790
-5.929510	3.599990	-1.592910
-5.915380	3.591430	-1.587700
-5.907440	3.586630	-1.584150
-5.903370	3.584180	-1.581650
-5.900870	3.582670	-1.579560
-5.899770	3.582020	-1.577860
-5.898380	3.581190	-1.576070
-5.897990	3.580970	-1.574560
-5.896450	3.580050	-1.572740
-5.896290	3.579970	-1.571280
-5.895730	3.579650	-1.569720
-5.895290	3.579390	-1.568190
-5.895070	3.579280	-1.566720
-5.894500	3.578950	-1.565160
-5.894680	3.579070	-1.563800
-5.894460	3.578950	-1.562330
-5.894070	3.578740	-1.560820
-5.894480	3.579000	-1.559510
-5.894760	3.579180	-1.558180
-5.894810	3.579230	-1.556780
-5.894860	3.579280	-1.555380
-5.894980	3.579360	-1.554000
-5.895520	3.579710	-1.552740
-5.895680	3.579820	-1.551370
-5.896070	3.580080	-1.550070
-5.896920	3.580610	-1.548880
-5.897240	3.580820	-1.547560
-5.897550	3.581020	-1.546230
-5.898770	3.581780	-1.545140
-5.899510	3.582240	-1.543920
-5.900310	3.582740	-1.542720
-5.901230	3.583320	-1.541560
-5.902830	3.584300	-1.540570
-5.903390	3.584660	-1.539300
-5.904790	3.585520	-1.538260
-5.905940	3.586240	-1.537150
-5.908380	3.587730	-1.536370
-5.910230	3.588880	-1.535440
-5.913610	3.590940	-1.534910
-5.918490	3.593920	-1.534760
-5.926230	3.598640	-1.535350
-5.935150	3.604060	-1.536250
-5.943470	3.609130	-1.536980
-5.946190	3.610800	-1.536270
-5.947530	3.611630	-1.535190
-5.946570	3.611060	-1.533530
-5.947070	3.611380	-1.532240
-5.948210	3.612090	-1.531120
-5.947340	3.611580	-1.529470
-5.948350	3.612210	-1.528320
-5.947330	3.611610	-1.526640
-5.948190	3.612140	-1.525440
-5.947560	3.611770	-1.523860
-5.947710	3.611880	-1.522480
-5.947550	3.611800	-1.521020
-5.948130	3.612170	-1.519750
-5.948020	3.612120	-1.518310
-5.947110	3.611580	-1.516660
-5.949100	3.612800	-1.515740
-5.951530	3.614290	-1.514950
-5.954200	3.615930	-1.514210
-5.941650	3.608870	-1.603910
-5.946270	3.611690	-1.603740
-5.945400	3.611180	-1.602080
-5.941590	3.608890	-1.599630
-5.928670	3.601060	-1.594730
-5.912440	3.591220	-1.588950
-5.905170	3.586820	-1.585580
-5.901590	3.584660	-1.583200
-5.899400	3.583350	-1.581200
-5.897840	3.582410	-1.579370
-5.896750	3.581770	-1.577670
-5.895180	3.580830	-1.575840
-5.895260	3.580890	-1.574450
-5.894100	3.580210	-1.572730
-5.893810	3.580050	-1.571240
-5.893280	3.579740	-1.569690
-5.892860	3.579500	-1.568170
-5.892610	3.579360	-1.566690
-5.892410	3.579260	-1.565230
-5.892030	3.579040	-1.563720
-5.892210	3.579160	-1.562350
-5.892130	3.579130	-1.560920
-5.891820	3.578950	-1.559430
-5.892130	3.579150	-1.558100
-5.891870	3.579010	-1.556620
-5.892530	3.579420	-1.555390
-5.892670	3.579520	-1.554020
-5.892810	3.579620	-1.552640
-5.893540	3.580080	-1.551430
-5.893880	3.580310	-1.550110
-5.894160	3.580490	-1.548770
-5.894670	3.580820	-1.547500
-5.895410	3.581290	-1.546280
-5.895920	3.581620	-1.545010
-5.896660	3.582080	-1.543790
-5.897780	3.582780	-1.542670
-5.898730	3.583370	-1.541510
-5.899530	3.583880	-1.540310
-5.900530	3.584500	-1.539160
-5.901680	3.585220	-1.538060
-5.902810	3.585920	-1.536940
-5.904500	3.586950	-1.535970
-5.905940	3.587840	-1.534930
-5.907810	3.588990	-1.534010
-5.909830	3.590230	-1.533120
-5.913680	3.592580	-1.532710
-5.919620	3.596200	-1.532830
-5.930360	3.602740	-1.534200
-5.938360	3.607610	-1.534850
-5.943520	3.610760	-1.534760
-5.946020	3.612300	-1.533990
-5.945810	3.612190	-1.532520
-5.946890	3.612860	-1.531380
-5.946430	3.612600	-1.529840
-5.946940	3.612920	-1.528550
-5.946820	3.612860	-1.527100
-5.948590	3.613950	-1.526140
-5.947460	3.613290	-1.524430
-5.947520	3.613340	-1.523030
-5.947140	3.613120	-1.521510
-5.946850	3.612970	-1.520020
-5.947220	3.613200	-1.518690
-5.947590	3.613440	-1.517370
-5.947600	3.613470	-1.515950
-5.949710	3.614760	-1.515070
-5.952350	3.616380	-1.514330
-5.943110	3.611400	-1.604150
-5.942510	3.611050	-1.602560
-5.933450	3.605560	-1.598700
-5.919400	3.597040	-1.593490
-5.906590	3.589270	-1.588630
-5.901580	3.586240	-1.585870
-5.898730	3.584520	-1.583690
-5.897330	3.583690	-1.581900
-5.895650	3.582680	-1.580040
-5.894320	3.581890	-1.578270
-5.893370	3.581320	-1.576600
-5.892640	3.580900	-1.574990
-5.891910	3.580470	-1.573390
-5.891780	3.580400	-1.571940
-5.891040	3.579970	-1.570340
-5.890330	3.579560	-1.568740
-5.890320	3.579560	-1.567320
-5.890220	3.579520	-1.565890
-5.889880	3.579330	-1.564380
-5.889720	3.579250	-1.562930
-5.890010	3.579440	-1.561600
-5.889610	3.579210	-1.560080
-5.890060	3.579500	-1.558790
-5.889980	3.579470	-1.557360
-5.890010	3.579500	-1.555960
-5.890140	3.579600	-1.554590
-5.890420	3.579780	-1.553260
-5.890690	3.579960	-1.551920
-5.891280	3.580340	-1.550670
-5.891510	3.580490	-1.549320
-5.891930	3.580760	-1.548020
-5.892680	3.581240	-1.546810
-5.892950	3.581420	-1.545470
-5.893900	3.582010	-1.544310
-5.894290	3.582260	-1.543010
-5.895470	3.582990	-1.541910
-5.896140	3.583410	-1.540670
-5.896890	3.583880	-1.539460
-5.898350	3.584790	-1.538430
-5.899330	3.585400	-1.537270
-5.900130	3.585900	-1.536070
-5.901270	3.586610	-1.534960
-5.903610	3.588050	-1.534160
-5.904410	3.588550	-1.532950
-5.906420	3.589790	-1.532070
-5.908610	3.591140	-1.531220
-5.912380	3.593440	-1.530790
-5.917900	3.596810	-1.530800
-5.927110	3.602420	-1.531770
-5.936430	3.608100	-1.532760
-5.942030	3.611520	-1.532790
-5.943220	3.612260	-1.531670
-5.945210	3.613480	-1.530770
-5.944840	3.613280	-1.529260
-5.946670	3.614400	-1.528310
-5.945550	3.613740	-1.526600
-5.945970	3.614010	-1.525290
-5.945550	3.613770	-1.523760
-5.945490	3.613750	-1.522330
-5.946320	3.614270	-1.521120
-5.946360	3.614310	-1.519720
-5.945070	3.613540	-1.517970
-5.945810	3.614010	-1.516740
-5.947190	3.614860	-1.515680
-5.948750	3.615820	-1.514650
-5.953250	3.618570	-1.514380
-5.924400	3.601640	-1.600300
-5.938040	3.609950	-1.602560
-5.924830	3.601940	-1.597580
-5.908020	3.591740	-1.591630
-5.901910	3.588040	-1.588570
-5.897850	3.585580	-1.586060
-5.896350	3.584690	-1.584250
-5.894690	3.583700	-1.582390
-5.893070	3.582730	-1.580550
-5.892530	3.582420	-1.578990
-5.891360	3.581720	-1.577270
-5.890370	3.581130	-1.575590
-5.890060	3.580960	-1.574090
-5.889150	3.580420	-1.572440
-5.889250	3.580500	-1.571060
-5.889150	3.580460	-1.569620
-5.888470	3.580060	-1.568030
-5.888020	3.579800	-1.566500
-5.887910	3.579750	-1.565070
-5.887460	3.579490	-1.563540
-5.887880	3.579760	-1.562240
-5.887670	3.579650	-1.560780
-5.887540	3.579580	-1.559330
-5.887560	3.579610	-1.557930
-5.887760	3.579750	-1.556570
-5.887880	3.579840	-1.555200
-5.888280	3.580100	-1.553900
-5.888460	3.580220	-1.552530
-5.888920	3.580520	-1.551250
-5.889260	3.580740	-1.549930
-5.889370	3.580820	-1.548550
-5.890290	3.581400	-1.547380
-5.890670	3.581640	-1.546070
-5.891310	3.582050	-1.544840
-5.891700	3.582300	-1.543530
-5.892480	3.582790	-1.542330
-5.893400	3.583370	-1.541160
-5.894120	3.583820	-1.539940
-5.894670	3.584170	-1.538680
-5.895740	3.584830	-1.537550
-5.896690	3.585430	-1.536390
-5.898360	3.586460	-1.535410
-5.899000	3.586870	-1.534170
-5.900590	3.587850	-1.533170
-5.901790	3.588590	-1.532080
-5.903650	3.589740	-1.531150
-5.905900	3.591120	-1.530320
-5.907940	3.592380	-1.529440
-5.912200	3.594980	-1.529130
-5.917930	3.598480	-1.529200
-5.928320	3.604820	-1.530470
-5.937530	3.610430	-1.531430
-5.941130	3.612630	-1.530940
-5.944810	3.614890	-1.530470
-5.945030	3.615030	-1.529110
-5.944360	3.614640	-1.527520
-5.945240	3.615200	-1.526330
-5.944160	3.614550	-1.524630
-5.945530	3.615400	-1.523570
-5.944060	3.614520	-1.521770
-5.944850	3.615020	-1.520560
-5.944700	3.614950	-1.519100
-5.945190	3.615260	-1.517810
-5.945400	3.615410	-1.516450
-5.945890	3.615720	-1.515150
-5.949170	3.617730	-1.514570
-5.915710	3.598030	-1.598030
-5.918290	3.599620	-1.597310
-5.903970	3.590930	-1.592030
-5.898730	3.587760	-1.589200
-5.896400	3.586360	-1.587160
-5.893380	3.584540	-1.584940
-5.892610	3.584080	-1.583320
-5.891610	3.583490	-1.581640
-5.890780	3.583000	-1.580010
-5.889600	3.582310	-1.578280
-5.888570	3.581690	-1.576590
-5.888240	3.581510	-1.575100
-5.887790	3.581250	-1.573570
-5.887490	3.581080	-1.572080
-5.886610	3.580560	-1.570440
-5.886370	3.580430	-1.568960
-5.886080	3.580270	-1.567480
-5.886170	3.580340	-1.566090
-5.885560	3.579990	-1.564520
-5.885570	3.580010	-1.563120
-5.885570	3.580020	-1.561710
-5.885790	3.580170	-1.560360
-5.885920	3.580270	-1.558990
-5.885900	3.580270	-1.557580
-5.885610	3.580110	-1.556100
-5.886220	3.580500	-1.554850
-5.886290	3.580550	-1.553460
-5.886430	3.580660	-1.552090
-5.886940	3.580980	-1.550820
-5.887180	3.581150	-1.549470
-5.887480	3.581340	-1.548140
-5.887960	3.581650	-1.546860
-5.888480	3.581980	-1.545590
-5.889130	3.582400	-1.544350
-5.889540	3.582660	-1.543050
-5.890370	3.583180	-1.541860
-5.891140	3.583670	-1.540660
-5.891830	3.584100	-1.539430
-5.892720	3.584650	-1.538260
-5.893800	3.585330	-1.537130
-5.894520	3.585780	-1.535910
-5.895650	3.586490	-1.534800
-5.896660	3.587120	-1.533660
-5.897960	3.587920	-1.532590
-5.899560	3.588910	-1.531590
-5.901010	3.589810	-1.530560
-5.902890	3.590960	-1.529640
-5.904840	3.592170	-1.528730
-5.907330	3.593700	-1.527970
-5.910110	3.595410	-1.527280
-5.916610	3.599370	-1.527550
-5.926800	3.605590	-1.528760
-5.936610	3.611570	-1.529870
-5.939630	3.613420	-1.529240
-5.941340	3.614480	-1.528260
-5.943370	3.615730	-1.527360
-5.943620	3.615900	-1.526010
-5.943300	3.615720	-1.524510
-5.943200	3.615670	-1.523070
-5.943090	3.615620	-1.521620
-5.943980	3.616180	-1.520430
-5.942640	3.615380	-1.518670
-5.943920	3.616180	-1.517580
-5.943960	3.616220	-1.516180
-5.945590	3.617220	-1.515170
-5.948850	3.619220	-1.514590
-5.970800	3.632590	-1.518750
-5.904180	3.592680	-1.594820
-5.900570	3.590500	-1.592430
-5.896230	3.587880	-1.589850
-5.894300	3.586720	-1.587920
-5.892120	3.585410	-1.585920
-5.890380	3.584360	-1.584040
-5.890200	3.584270	-1.582580
-5.888780	3.583420	-1.580790
-5.888100	3.583020	-1.579190
-5.886760	3.582230	-1.577420
-5.886430	3.582040	-1.575920
-5.886100	3.581860	-1.574420
-5.885450	3.581480	-1.572840
-5.885030	3.581240	-1.571320
-5.884540	3.580950	-1.569780
-5.884250	3.580790	-1.568290
-5.883900	3.580600	-1.566790
-5.883890	3.580600	-1.565380
-5.883890	3.580620	-1.563970
-5.883380	3.580330	-1.562420
-5.883720	3.580550	-1.561110
-5.883490	3.580420	-1.559640
-5.883760	3.580610	-1.558300
-5.883630	3.580540	-1.556860
-5.883830	3.580680	-1.555500
-5.884150	3.580890	-1.554180
-5.884400	3.581060	-1.552840
-5.884740	3.581280	-1.551520
-5.885170	3.581560	-1.550230
-5.885590	3.581840	-1.547520
-5.886080	3.582160	-1.546250
-5.886880	3.582660	-1.545050
-5.887320	3.582950	-1.543760
-5.887750	3.583220	-1.542470
-5.888460	3.583670	-1.541250
-5.889660	3.584420	-1.540160
-5.890410	3.584890	-1.538950
-5.891060	3.585300	-1.537710
-5.891650	3.585670	-1.536460
-5.892510	3.586210	-1.535270
-5.893700	3.586950	-1.534180
-5.894870	3.587680	-1.533070
-5.896260	3.588540	-1.532030
-5.897340	3.589210	-1.530900
-5.898780	3.590110	-1.529860
-5.901000	3.591470	-1.529030
-5.901910	3.592040	-1.527850
-5.903750	3.593180	-1.526920
-5.906590	3.594920	-1.526240
-5.910210	3.597140	-1.525770
-5.916850	3.601200	-1.526070
-5.927880	3.607920	-1.527500
-5.936670	3.613290	-1.528350
-5.940850	3.615850	-1.528010
-5.941210	3.616080	-1.526680
-5.940950	3.615940	-1.525200
-5.941780	3.616460	-1.523990
-5.942680	3.617020	-1.522800
-5.942370	3.616850	-1.521310
-5.942920	3.617200	-1.520030
-5.943750	3.617720	-1.518830
-5.943010	3.617290	-1.517220
-5.943140	3.617380	-1.515830
-5.945100	3.618590	-1.514920
-5.950710	3.622020	-1.514930
-5.895820	3.589270	-1.592740
-5.894440	3.588440	-1.590950
-5.892350	3.587190	-1.588970
-5.890400	3.586020	-1.587040
-5.889680	3.585590	-1.585430
-5.888350	3.584800	-1.583660
-5.887290	3.584170	-1.581960
-5.886540	3.583730	-1.580350
-5.885710	3.583240	-1.578720
-5.884910	3.582770	-1.577090
-5.884250	3.582390	-1.575510
-5.883900	3.582180	-1.574000
-5.883430	3.581920	-1.572470
-5.882820	3.581560	-1.570900
-5.882310	3.581260	-1.569350
-5.882460	3.581370	-1.567990
-5.882220	3.581240	-1.566510
-5.881870	3.581050	-1.565010
-5.881680	3.580940	-1.563550
-5.881790	3.581030	-1.562180
-5.881330	3.580760	-1.560650
-5.881760	3.581040	-1.559350
-5.881570	3.580940	-1.557900
-5.881880	3.581150	-1.556570
-5.881940	3.581200	-1.555180
-5.882130	3.581330	-1.553820
-5.882660	3.581670	-1.552550
-5.882730	3.581730	-1.551160
-5.883080	3.581960	-1.549850
-5.883520	3.582240	-1.548560
-5.883890	3.582480	-1.547250
-5.884250	3.582720	-1.545930
-5.884670	3.582990	-1.544640
-5.885800	3.583700	-1.542120
-5.886550	3.584180	-1.540910
-5.887370	3.584690	-1.539720
-5.887920	3.585040	-1.538450
-5.888620	3.585480	-1.537230
-5.889850	3.586250	-1.536140
-5.890560	3.586700	-1.534920
-5.891350	3.587190	-1.533720
-5.892780	3.588080	-1.532680
-5.893950	3.588810	-1.531580
-5.895060	3.589500	-1.530460
-5.896150	3.590180	-1.529340
-5.898030	3.591340	-1.528410
-5.899220	3.592080	-1.527310
-5.901360	3.593400	-1.526460
-5.903340	3.594610	-1.525560
-5.906010	3.596260	-1.524840
-5.910340	3.598910	-1.524550
-5.916570	3.602720	-1.524740
-5.927690	3.609500	-1.526200
-5.936280	3.614750	-1.526990
-5.939780	3.616890	-1.526470
-5.940720	3.617490	-1.525300
-5.940840	3.617570	-1.523910
-5.941300	3.617870	-1.522610
-5.940650	3.617490	-1.521020
-5.941370	3.617940	-1.519790
-5.942040	3.618370	-1.518540
-5.941670	3.618150	-1.517030
-5.942170	3.618480	-1.515740
-5.944260	3.619770	-1.514860
-5.950310	3.623460	-1.514980
-5.892530	3.588880	-1.593070
-5.892270	3.588740	-1.591580
-5.891210	3.588110	-1.589890
-5.889580	3.587130	-1.588030
-5.888000	3.586180	-1.586200
-5.886460	3.585260	-1.584370
-5.885770	3.584850	-1.582770
-5.885060	3.584430	-1.581170
-5.884150	3.583890	-1.579520
-5.883390	3.583440	-1.577900
-5.882710	3.583040	-1.576310
-5.882250	3.582780	-1.574780
-5.881670	3.582440	-1.573220
-5.881500	3.582350	-1.571760
-5.881080	3.582110	-1.570240
-5.880650	3.581860	-1.568720
-5.880520	3.581800	-1.567280
-5.880010	3.581500	-1.565730
-5.880140	3.581600	-1.564360
-5.880030	3.581550	-1.562920
-5.880230	3.581680	-1.561570
-5.880030	3.581580	-1.560110
-5.880000	3.581580	-1.558690
-5.880000	3.581590	-1.557290
-5.880530	3.581930	-1.556020
-5.880510	3.581940	-1.554610
-5.880790	3.582120	-1.553270
-5.880930	3.582220	-1.551900
-5.881070	3.582330	-1.550530
-5.881230	3.582440	-1.549170
-5.881970	3.582900	-1.547960
-5.882270	3.583100	-1.546630
-5.882700	3.583380	-1.545330
-5.883210	3.583710	-1.544060
-5.883900	3.584140	-1.542830
-5.884540	3.584550	-1.541600
-5.884990	3.584830	-1.540310
-5.885730	3.585310	-1.539090
-5.886290	3.585660	-1.537830
-5.886990	3.586100	-1.536610
-5.888040	3.586760	-1.535480
-5.888610	3.587120	-1.534220
-5.890050	3.588010	-1.533190
-5.890700	3.588420	-1.531950
-5.892240	3.589380	-1.530940
-5.893340	3.590060	-1.529820
-5.894540	3.590810	-1.528720
-5.896130	3.591790	-1.527730
-5.897940	3.592910	-1.526790
-5.899230	3.593710	-1.525720
-5.901480	3.595100	-1.524890
-5.903240	3.596190	-1.523940
-5.906210	3.598010	-1.523300
-5.911360	3.601160	-1.523210
-5.919700	3.606260	-1.523950
-5.931120	3.613230	-1.525480
-5.937540	3.617160	-1.525710
-5.939490	3.618360	-1.524790
-5.939610	3.618450	-1.523410
-5.939800	3.618580	-1.522040
-5.940540	3.619050	-1.520820
-5.940260	3.618890	-1.519330
-5.941370	3.619590	-1.518200
-5.940720	3.619200	-1.516610
-5.941280	3.619560	-1.515340
-5.944740	3.621680	-1.514810
-5.891180	3.589640	-1.593820
-5.891000	3.589540	-1.592360
-5.889480	3.588630	-1.590530
-5.887950	3.587710	-1.588700
-5.886690	3.586960	-1.586950
-5.885290	3.586120	-1.585160
-5.884480	3.585650	-1.583540
-5.883180	3.584870	-1.581780
-5.882470	3.584460	-1.580180
-5.881970	3.584160	-1.578630
-5.881080	3.583640	-1.576980
-5.880610	3.583370	-1.575450
-5.880180	3.583120	-1.573920
-5.880010	3.583040	-1.572470
-5.879410	3.582680	-1.570900
-5.878950	3.582420	-1.569370
-5.879270	3.582630	-1.568040
-5.878540	3.582200	-1.566440
-5.878440	3.582160	-1.565000
-5.878410	3.582160	-1.563590
-5.878320	3.582120	-1.562160
-5.878200	3.582060	-1.560720
-5.878550	3.582280	-1.559400
-5.878650	3.582360	-1.558020
-5.878600	3.582350	-1.556600
-5.878670	3.582410	-1.555210
-5.878920	3.582570	-1.553870
-5.879190	3.582750	-1.552530
-5.879310	3.582840	-1.551160
-5.879650	3.583070	-1.549840
-5.880140	3.583380	-1.548560
-5.880460	3.583590	-1.547240
-5.880760	3.583790	-1.545910
-5.881100	3.584010	-1.544590
-5.881840	3.584480	-1.543380
-5.882410	3.584840	-1.542120
-5.882860	3.585130	-1.540830
-5.883660	3.585640	-1.539640
-5.884290	3.586040	-1.538400
-5.884700	3.586300	-1.537100
-5.885770	3.586970	-1.535970
-5.886700	3.587550	-1.534810
-5.887500	3.588050	-1.533610
-5.888420	3.588630	-1.532440
-5.889460	3.589280	-1.531310
-5.890530	3.589950	-1.530180
-5.891850	3.590770	-1.529110
-5.893330	3.591690	-1.528090
-5.894580	3.592460	-1.527000
-5.896410	3.593590	-1.526070
-5.897810	3.594460	-1.525020
-5.900230	3.595950	-1.524240
-5.901780	3.596910	-1.523230
-5.904140	3.598360	-1.522430
-5.908060	3.600770	-1.522030
-5.915160	3.605110	-1.522450
-5.926030	3.611750	-1.523830
-5.935610	3.617600	-1.524870
-5.938110	3.619140	-1.524100
-5.938610	3.619470	-1.522810
-5.939480	3.620010	-1.521610
-5.938490	3.619420	-1.519940
-5.939400	3.619990	-1.518750
-5.940310	3.620570	-1.517570
-5.939880	3.620320	-1.516040
-5.941670	3.621420	-1.515080
-5.946220	3.624210	-1.514820
-5.889740	3.590350	-1.594500
-5.889080	3.589970	-1.592910
-5.888290	3.589500	-1.591290
-5.886970	3.588710	-1.589520
-5.885690	3.587940	-1.587760
-5.884270	3.587090	-1.585970
-5.882880	3.586250	-1.584180
-5.882640	3.586120	-1.582710
-5.881240	3.585280	-1.580920
-5.880730	3.584980	-1.579380
-5.880180	3.584670	-1.577820
-5.879220	3.584090	-1.576160
-5.878900	3.583910	-1.574660
-5.878310	3.583570	-1.573100
-5.878330	3.583600	-1.571700
-5.877420	3.583060	-1.570050
-5.877230	3.582960	-1.568590
-5.877240	3.582980	-1.567180
-5.876860	3.582770	-1.565680
-5.876940	3.582830	-1.564290
-5.876900	3.582820	-1.562870
-5.876560	3.582630	-1.561370
-5.876730	3.582750	-1.560010
-5.876860	3.582850	-1.558640
-5.876740	3.582790	-1.557200
-5.877200	3.583080	-1.555910
-5.877000	3.582980	-1.554450
-5.877370	3.583220	-1.553140
-5.877490	3.583310	-1.551770
-5.877770	3.583490	-1.550430
-5.878100	3.583710	-1.549120
-5.878730	3.584110	-1.547880
-5.879600	3.584680	-1.545290
-5.879860	3.584850	-1.543950
-5.880270	3.585110	-1.542650
-5.881010	3.585580	-1.541440
-5.881690	3.586010	-1.540210
-5.882340	3.586420	-1.538980
-5.882760	3.586690	-1.537680
-5.883550	3.587190	-1.536480
-5.884290	3.587650	-1.535270
-5.885070	3.588150	-1.534060
-5.886380	3.588960	-1.533000
-5.887310	3.589540	-1.531830
-5.888320	3.590180	-1.530690
-5.889370	3.590830	-1.529550
-5.890550	3.591570	-1.528450
-5.892090	3.592520	-1.527450
-5.893260	3.593250	-1.526340
-5.894940	3.594290	-1.525370
-5.896660	3.595350	-1.524410
-5.898370	3.596410	-1.523440
-5.900540	3.597750	-1.522590
-5.902920	3.599220	-1.521800
-5.906240	3.601260	-1.521250
-5.911510	3.604490	-1.521190
-5.921350	3.610500	-1.522310
-5.932440	3.617280	-1.523750
-5.935520	3.619170	-1.523120
-5.937560	3.620430	-1.522230
-5.937570	3.620450	-1.520810
-5.937920	3.620680	-1.519490
-5.938320	3.620940	-1.518180
-5.938140	3.620840	-1.516710
-5.939300	3.621570	-1.515590
-5.941250	3.622770	-1.514670
-5.947860	3.626820	-1.514940
-5.887730	3.590700	-1.595860
-5.888860	3.591400	-1.594750
-5.888170	3.591000	-1.593150
-5.886270	3.589850	-1.591230
-5.884450	3.588760	-1.589320
-5.883630	3.588270	-1.587690
-5.882130	3.587380	-1.585880
-5.881260	3.586860	-1.584230
-5.880530	3.586430	-1.582620
-5.879390	3.585750	-1.580910
-5.878570	3.585270	-1.579280
-5.878330	3.585140	-1.577810
-5.877710	3.584780	-1.576230
-5.877270	3.584520	-1.574700
-5.876670	3.584170	-1.573130
-5.876550	3.584120	-1.571700
-5.876170	3.583900	-1.570180
-5.875850	3.583720	-1.568690
-5.875500	3.583520	-1.567190
-5.875520	3.583550	-1.565790
