-5.955030	3.593350	0.079260
-5.955370	3.593570	0.080620
-5.954970	3.593350	0.081970
-5.955020	3.593390	0.083330
-5.955460	3.593670	0.084700
-5.953730	3.592640	0.086030
-5.954370	3.593040	0.087390
-5.959490	3.596150	0.088830
-5.957700	3.595660	-0.005340
-5.955690	3.594470	-0.003990
-5.955670	3.594470	-0.002630
-5.955320	3.594270	-0.001270
-5.954910	3.594040	0.000090
-5.955400	3.594350	0.001440
-5.954120	3.593590	0.002800
-5.955640	3.594520	0.004160
-5.954520	3.593860	0.005510
-5.954830	3.594070	0.006870
-5.955710	3.594610	0.008230
-5.954320	3.593780	0.009580
-5.955030	3.594230	0.010940
-5.955520	3.594540	0.012300
-5.954960	3.594210	0.013660
-5.954200	3.593770	0.015010
-5.954760	3.594120	0.016370
-5.954530	3.594000	0.017720
-5.954020	3.593710	0.019080
-5.954510	3.594020	0.020440
-5.954450	3.593990	0.021790
-5.954710	3.594160	0.023150
-5.954230	3.593890	0.024510
-5.954700	3.594190	0.025870
-5.954250	3.593930	0.027220
-5.954340	3.594000	0.028580
-5.954700	3.594240	0.029940
-5.955070	3.594470	0.031300
-5.953900	3.593780	0.032650
-5.954530	3.594170	0.034010
-5.953640	3.593650	0.035360
-5.954280	3.594060	0.036720
-5.954380	3.594130	0.038080
-5.954580	3.594270	0.039430
-5.953710	3.593760	0.040790
-5.954260	3.594100	0.042150
-5.954380	3.594190	0.043500
-5.954710	3.594400	0.044860
-5.954140	3.594070	0.046210
-5.954230	3.594150	0.047570
-5.953960	3.593990	0.048930
-5.954750	3.594490	0.050290
-5.954360	3.594270	0.051640
-5.953860	3.593980	0.052990
-5.954220	3.594210	0.054350
-5.953480	3.593780	0.055700
-5.954120	3.594180	0.057070
-5.954280	3.594290	0.058420
-5.954400	3.594380	0.059780
-5.953350	3.593760	0.061130
-5.953830	3.594060	0.062490
-5.954160	3.594280	0.063850
-5.953460	3.593870	0.065200
-5.953500	3.593910	0.066560
-5.954230	3.594360	0.067920
-5.954890	3.594770	0.069290
-5.953920	3.594200	0.070630
-5.954790	3.594740	0.072000
-5.953110	3.593750	0.073340
-5.953590	3.594050	0.074700
-5.954460	3.594590	0.076060
-5.954970	3.594910	0.077430
-5.953930	3.594300	0.078770
-5.953230	3.593890	0.080120
-5.954280	3.594540	0.081490
-5.953330	3.593980	0.082830
-5.953760	3.594250	0.084190
-5.952330	3.593410	0.085530
-5.952800	3.593710	0.086890
-5.955490	3.595350	0.088290
-5.961110	3.599310	-0.006380
-5.955370	3.595850	-0.005020
-5.953880	3.594970	-0.003660
-5.953590	3.594810	-0.002310
-5.954440	3.595340	-0.000950
-5.954860	3.595600	0.000400
-5.954170	3.595210	0.001760
-5.953020	3.594530	0.003120
-5.953620	3.594900	0.004470
-5.954150	3.595240	0.005830
-5.953890	3.595090	0.007190
-5.954200	3.595290	0.008540
-5.953460	3.594870	0.009900
-5.954210	3.595330	0.011260
-5.953550	3.594950	0.012610
-5.953840	3.595140	0.013970
-5.954140	3.595330	0.015330
-5.953800	3.595140	0.016680
-5.953700	3.595100	0.018040
-5.953590	3.595050	0.019400
-5.953040	3.594730	0.020750
-5.952670	3.594520	0.022110
-5.953640	3.595120	0.023470
-5.953970	3.595330	0.024830
-5.953020	3.594780	0.026180
-5.952900	3.594720	0.027540
-5.953510	3.595100	0.028890
-5.953060	3.594840	0.030250
-5.953430	3.595080	0.031610
-5.953110	3.594900	0.032960
-5.953600	3.595210	0.034320
-5.953390	3.595100	0.035680
-5.952800	3.594760	0.037030
-5.953820	3.595390	0.038390
-5.953080	3.594960	0.039740
-5.953520	3.595240	0.041100
-5.953000	3.594940	0.042460
-5.953260	3.595110	0.043820
-5.952660	3.594760	0.045170
-5.953120	3.595060	0.046530
-5.953050	3.595030	0.047880
-5.952880	3.594940	0.049240
-5.953650	3.595420	0.050600
-5.953400	3.595280	0.051960
-5.953110	3.595120	0.053310
-5.953470	3.595350	0.054680
-5.952350	3.594690	0.056020
-5.953730	3.595540	0.057390
-5.953870	3.595640	0.058750
-5.953620	3.595510	0.060110
-5.952040	3.594560	0.061450
-5.953690	3.595580	0.062830
-5.953510	3.595480	0.064180
-5.953730	3.595630	0.065540
-5.952950	3.595170	0.066890
-5.952070	3.594660	0.068230
-5.952410	3.594880	0.069590
-5.952440	3.594910	0.070950
-5.953390	3.595500	0.072320
-5.952710	3.595110	0.073660
-5.953010	3.595300	0.075020
-5.952810	3.595200	0.076380
-5.953260	3.595480	0.077740
-5.953400	3.595580	0.079100
-5.952310	3.594930	0.080440
-5.952150	3.594850	0.081800
-5.952020	3.594790	0.083150
-5.953510	3.595700	0.084530
-5.951720	3.594630	0.085860
-5.952020	3.594840	0.087220
-5.954890	3.596580	0.088620
-5.959260	3.599810	-0.006410
-5.955340	3.597450	-0.005050
-5.953410	3.596300	-0.003690
-5.953280	3.596240	-0.002330
-5.952500	3.595780	-0.000970
-5.952870	3.596020	0.000380
-5.952160	3.595610	0.001740
-5.953800	3.596610	0.003100
-5.952520	3.595860	0.004460
-5.953080	3.596210	0.005810
-5.953100	3.596240	0.007170
-5.951990	3.595580	0.008530
-5.951910	3.595540	0.009880
-5.952110	3.595680	0.011240
-5.952670	3.596030	0.012590
-5.952040	3.595670	0.013950
-5.952770	3.596120	0.015310
-5.951970	3.595650	0.016660
-5.952270	3.595850	0.018010
-5.952400	3.595940	0.019370
-5.952680	3.596130	0.020730
-5.953020	3.596350	0.022080
-5.952240	3.595890	0.023430
-5.953220	3.596500	0.024790
-5.952030	3.595790	0.026150
-5.951740	3.595630	0.027500
-5.952290	3.595980	0.028860
-5.953670	3.596830	0.030220
-5.952390	3.596070	0.031570
-5.952430	3.596110	0.032930
-5.952270	3.596030	0.034290
-5.952650	3.596270	0.035640
-5.952160	3.595990	0.037000
-5.952190	3.596020	0.038350
-5.952360	3.596140	0.039710
-5.951560	3.595670	0.041060
-5.952600	3.596310	0.042430
-5.952720	3.596400	0.043780
-5.952230	3.596120	0.045140
-5.951980	3.595980	0.046490
-5.951400	3.595650	0.047850
-5.952120	3.596100	0.049210
-5.952000	3.596040	0.050560
-5.952460	3.596330	0.051920
-5.952640	3.596450	0.053280
-5.951380	3.595710	0.054630
-5.951420	3.595750	0.055990
-5.951560	3.595850	0.057340
-5.952060	3.596170	0.058700
-5.951810	3.596030	0.060060
-5.952640	3.596550	0.061420
-5.950920	3.595520	0.062760
-5.951740	3.596030	0.064130
-5.952080	3.596250	0.065490
-5.952130	3.596290	0.066840
-5.951980	3.596220	0.068200
-5.951180	3.595750	0.069540
-5.951470	3.595940	0.070900
-5.952960	3.596850	0.072280
-5.951310	3.595870	0.073620
-5.952390	3.596540	0.074990
-5.953000	3.596920	0.076350
-5.952470	3.596620	0.077700
-5.951560	3.596080	0.079050
-5.952020	3.596370	0.080410
-5.951380	3.596000	0.081760
-5.952160	3.596490	0.083130
-5.951370	3.596030	0.084470
-5.950700	3.595630	0.085820
-5.950810	3.595720	0.087180
-5.954080	3.597710	0.088580
-5.956270	3.598990	-0.006240
-5.953410	3.597490	-0.004880
-5.952780	3.597320	-0.003520
-5.952700	3.597500	-0.002170
-5.951770	3.596960	-0.000810
-5.952020	3.597120	0.000550
-5.951940	3.597090	0.001900
-5.951480	3.596830	0.003260
-5.951720	3.596990	0.004620
-5.951590	3.596920	0.005980
-5.951930	3.597140	0.007330
-5.951150	3.596690	0.008690
-5.951150	3.596710	0.010050
-5.951940	3.597190	0.011410
-5.951730	3.597080	0.012760
-5.950370	3.596270	0.014120
-5.951660	3.597070	0.015480
-5.951010	3.596690	0.016830
-5.951040	3.596720	0.018190
-5.951710	3.597140	0.019540
-5.951390	3.596970	0.020900
-5.952040	3.597370	0.022260
-5.950900	3.596700	0.023610
-5.951200	3.596890	0.024960
-5.951880	3.597320	0.026320
-5.951510	3.597110	0.027680
-5.951090	3.596870	0.029030
-5.951370	3.597050	0.030390
-5.950880	3.596780	0.031740
-5.951310	3.597050	0.033100
-5.950890	3.596810	0.034450
-5.951460	3.597170	0.035810
-5.951300	3.597090	0.037170
-5.951510	3.597230	0.038530
-5.950800	3.596820	0.039880
-5.950740	3.596800	0.041240
-5.950720	3.596800	0.042590
-5.950560	3.596710	0.043950
-5.951290	3.597160	0.045310
-5.952130	3.597680	0.046670
-5.950680	3.596820	0.048020
-5.950640	3.596800	0.049370
-5.950300	3.596610	0.050720
-5.950720	3.596880	0.052080
-5.951910	3.597610	0.053450
-5.950360	3.596690	0.054790
-5.950500	3.596790	0.056150
-5.950620	3.596880	0.057500
-5.951340	3.597320	0.058870
-5.950680	3.596940	0.060220
-5.950660	3.596940	0.061570
-5.951470	3.597450	0.062940
-5.951420	3.597430	0.064290
-5.950900	3.597130	0.065640
-5.950610	3.596970	0.067000
-5.951490	3.597520	0.068360
-5.950440	3.596900	0.069710
-5.950450	3.596920	0.071070
-5.950200	3.596780	0.072420
-5.950060	3.596710	0.073770
-5.950810	3.597180	0.075140
-5.951040	3.597340	0.076500
-5.951390	3.597560	0.077860
-5.950530	3.597060	0.079210
-5.950590	3.597110	0.080570
-5.950100	3.596830	0.081920
-5.950870	3.597310	0.083280
-5.950490	3.597090	0.084640
-5.948900	3.596150	0.085970
-5.949630	3.596600	0.087340
-5.954170	3.599360	0.088760
-5.955980	3.601040	-0.006170
-5.952010	3.598650	-0.004810
-5.951050	3.598110	-0.002100
-5.951120	3.598160	-0.000740
-5.951020	3.598110	0.000620
-5.951360	3.598330	0.001970
-5.951020	3.598150	0.003330
-5.950750	3.597990	0.004680
-5.951070	3.598210	0.006040
-5.950690	3.597990	0.007400
-5.949870	3.597510	0.008750
-5.950300	3.597780	0.010110
-5.949900	3.597560	0.011460
-5.950580	3.597980	0.012820
-5.950250	3.597800	0.014180
-5.950890	3.598200	0.015540
-5.950680	3.598090	0.016890
-5.950250	3.597850	0.018250
-5.949640	3.597490	0.019600
-5.949500	3.597420	0.020960
-5.950010	3.597740	0.022320
-5.950350	3.597960	0.023670
-5.950660	3.598160	0.025030
-5.950290	3.597950	0.026390
-5.949890	3.597730	0.027740
-5.949510	3.597510	0.029090
-5.949610	3.597590	0.030450
-5.949810	3.597720	0.031810
-5.950860	3.598370	0.033170
-5.950110	3.597930	0.034520
-5.950120	3.597950	0.035880
-5.950070	3.597940	0.037230
-5.949830	3.597810	0.038590
-5.949240	3.597470	0.039940
-5.949640	3.597730	0.041300
-5.949080	3.597400	0.042650
-5.949460	3.597650	0.044010
-5.950450	3.598260	0.045370
-5.949480	3.597690	0.046720
-5.949930	3.597970	0.048080
-5.950400	3.598270	0.049440
-5.950010	3.598050	0.050800
-5.949690	3.597870	0.052150
-5.950280	3.598240	0.053510
-5.950500	3.598390	0.054870
-5.949410	3.597740	0.056220
-5.949910	3.598060	0.057580
-5.949800	3.598010	0.058940
-5.949980	3.598140	0.060300
-5.950090	3.598220	0.061660
-5.950030	3.598190	0.063010
-5.949700	3.598010	0.064370
-5.949920	3.598160	0.065730
-5.949570	3.597960	0.067080
-5.949870	3.598160	0.068440
-5.949700	3.598070	0.069790
-5.949360	3.597880	0.071140
-5.949830	3.598180	0.072500
-5.949550	3.598020	0.073850
-5.949640	3.598090	0.075210
-5.950180	3.598440	0.076570
-5.950010	3.598350	0.077930
-5.949520	3.598060	0.079280
-5.950030	3.598390	0.080640
-5.949300	3.597960	0.081990
-5.949390	3.598030	0.083340
-5.949270	3.597970	0.084700
-5.947970	3.597200	0.086040
-5.948870	3.597760	0.087410
-5.954170	3.600980	0.088840
-5.962760	3.606190	0.090330
-5.960040	3.605020	-0.007060
-5.953550	3.601110	-0.005700
-5.950560	3.599310	-0.004340
-5.950260	3.599150	-0.002980
-5.949490	3.598690	-0.001630
-5.949040	3.598440	-0.000270
-5.949780	3.598900	0.001090
-5.948810	3.598330	0.002440
-5.949580	3.598810	0.003800
-5.949600	3.598830	0.005160
-5.950120	3.599170	0.006510
-5.949250	3.598660	0.007870
-5.949620	3.598890	0.009220
-5.949900	3.599080	0.010580
-5.949800	3.599030	0.011940
-5.949410	3.598810	0.013290
-5.949380	3.598810	0.014650
-5.949140	3.598680	0.016010
-5.949320	3.598800	0.017360
-5.950680	3.599640	0.018720
-5.948750	3.598490	0.020070
-5.951090	3.599910	0.021440
-5.948400	3.598300	0.022790
-5.949210	3.598810	0.024150
-5.948990	3.598690	0.025500
-5.947810	3.597990	0.026850
-5.949880	3.599260	0.028220
-5.949160	3.598840	0.029570
-5.949620	3.599130	0.030930
-5.948880	3.598690	0.032280
-5.948530	3.598500	0.033630
-5.949200	3.598920	0.034990
-5.948980	3.598800	0.036350
-5.949930	3.599390	0.037710
-5.949200	3.598970	0.039060
-5.948650	3.598640	0.040410
-5.949010	3.598880	0.041770
-5.948810	3.598770	0.043130
-5.948550	3.598630	0.044480
-5.948570	3.598650	0.045840
-5.948750	3.598780	0.047200
-5.949110	3.599010	0.048560
-5.949830	3.599470	0.049920
-5.949260	3.599130	0.051270
-5.948940	3.598950	0.052630
-5.949880	3.599540	0.053990
-5.949030	3.599040	0.055340
-5.949380	3.599260	0.056700
-5.949130	3.599130	0.058050
-5.948700	3.598880	0.059410
-5.949230	3.599220	0.060770
-5.948930	3.599050	0.062120
-5.949500	3.599410	0.063480
-5.948250	3.598670	0.064820
-5.949460	3.599420	0.066190
-5.948400	3.598790	0.067540
-5.949650	3.599560	0.068910
-5.948760	3.599040	0.070250
-5.948510	3.598900	0.071610
-5.948710	3.599030	0.072970
-5.948550	3.598950	0.074320
-5.948820	3.599130	0.075680
-5.948950	3.599230	0.077040
-5.950650	3.600270	0.078410
-5.949320	3.599480	0.079750
-5.948710	3.599130	0.081100
-5.948520	3.599020	0.082450
-5.949150	3.599420	0.083820
-5.948190	3.598850	0.085160
-5.947120	3.598220	0.086500
-5.948790	3.599250	0.087880
-5.956120	3.603690	0.089350
-5.957030	3.604760	-0.006670
-5.950710	3.600940	-0.005310
-5.949930	3.600490	-0.003950
-5.949320	3.600140	-0.002590
-5.949460	3.600240	-0.001240
-5.948880	3.599900	0.000120
-5.949170	3.600090	0.001470
-5.947910	3.599340	0.002830
-5.949150	3.600110	0.004190
-5.948730	3.599870	0.005540
-5.948310	3.599630	0.006900
-5.947840	3.599360	0.008250
-5.948520	3.599780	0.009610
-5.948400	3.599720	0.010970
-5.948660	3.599900	0.012330
-5.948620	3.599890	0.013680
-5.947370	3.599150	0.015040
-5.948830	3.600050	0.016400
-5.948600	3.599920	0.017750
-5.948730	3.600010	0.019110
-5.949120	3.600260	0.020470
-5.948400	3.599840	0.021820
-5.947380	3.599240	0.023170
-5.947950	3.599600	0.024530
-5.948330	3.599850	0.025890
-5.948110	3.599720	0.027240
-5.947720	3.599510	0.028590
-5.947500	3.599390	0.029950
-5.947860	3.599620	0.031310
-5.947740	3.599560	0.032660
-5.946920	3.599080	0.034010
-5.948290	3.599920	0.035380
-5.948760	3.600230	0.036740
-5.949240	3.600530	0.038100
-5.947600	3.599550	0.039440
-5.947800	3.599690	0.040800
-5.948010	3.599830	0.042160
-5.948600	3.600200	0.043520
-5.948250	3.600000	0.044880
-5.948410	3.600120	0.046230
-5.948300	3.600060	0.047590
-5.947240	3.599430	0.048940
-5.947990	3.599900	0.050300
-5.947360	3.599530	0.051650
-5.947280	3.599500	0.053010
-5.948260	3.600100	0.054370
-5.947760	3.599820	0.055720
-5.948150	3.600070	0.057080
-5.946850	3.599290	0.058430
-5.948570	3.600350	0.059800
-5.947780	3.599890	0.061150
-5.947840	3.599930	0.062500
-5.948020	3.600060	0.063860
-5.947550	3.599790	0.065210
-5.948130	3.600150	0.066570
-5.948230	3.600220	0.067930
-5.948360	3.600320	0.069290
-5.947640	3.599900	0.070630
-5.948380	3.600350	0.072000
-5.948420	3.600390	0.073360
-5.948160	3.600260	0.074710
-5.947760	3.600030	0.076060
-5.947270	3.599760	0.077410
-5.947710	3.600040	0.078770
-5.947530	3.599950	0.080120
-5.948250	3.600400	0.081490
-5.947840	3.600170	0.082840
-5.947210	3.599800	0.084190
-5.947080	3.599740	0.085540
-5.946880	3.599630	0.086900
-5.949560	3.601270	0.088290
-5.959530	3.607320	0.089800
-5.965030	3.611140	-0.007680
-5.953960	3.604460	-0.006310
-5.949030	3.601490	-0.004950
-5.948000	3.600880	-0.003590
-5.947320	3.600480	-0.002230
-5.947400	3.600540	-0.000880
-5.946900	3.600260	0.000480
-5.947890	3.600870	0.001830
-5.947570	3.600690	0.003190
-5.947800	3.600840	0.004550
-5.947670	3.600780	0.005900
-5.947550	3.600720	0.007260
-5.947660	3.600810	0.008610
-5.948110	3.601090	0.009970
-5.948470	3.601320	0.011330
-5.947600	3.600810	0.012680
-5.946850	3.600370	0.014040
-5.947530	3.600800	0.015390
-5.947260	3.600650	0.016750
-5.947310	3.600700	0.018100
-5.947250	3.600680	0.019460
-5.946610	3.600300	0.020810
-5.947810	3.601040	0.022180
-5.947390	3.600800	0.023530
-5.946820	3.600480	0.024880
-5.946880	3.600520	0.026240
-5.946940	3.600580	0.027600
-5.947440	3.600890	0.028950
-5.946120	3.600110	0.030300
-5.947180	3.600770	0.031660
-5.946820	3.600560	0.033020
-5.947240	3.600830	0.034380
-5.946420	3.600350	0.035730
-5.946580	3.600460	0.037080
-5.946290	3.600300	0.038440
-5.946350	3.600350	0.039790
-5.947090	3.600810	0.041160
-5.946550	3.600500	0.042510
-5.946020	3.600190	0.043860
-5.946930	3.600760	0.045220
-5.947450	3.601090	0.046580
-5.946390	3.600470	0.047930
-5.947680	3.601260	0.049300
-5.947320	3.601050	0.050650
-5.947180	3.600990	0.052010
-5.947400	3.601130	0.053370
-5.946780	3.600770	0.054720
-5.947180	3.601030	0.056080
-5.946260	3.600490	0.057430
-5.947110	3.601020	0.058790
-5.945980	3.600350	0.060140
-5.945950	3.600340	0.061490
-5.947470	3.601280	0.062870
-5.946690	3.600820	0.064220
-5.947090	3.601080	0.065580
-5.946200	3.600560	0.066920
-5.946450	3.600720	0.068280
-5.947300	3.601250	0.069650
-5.946620	3.600850	0.071000
-5.946680	3.600900	0.072360
-5.947070	3.601160	0.073720
-5.946500	3.600820	0.075070
-5.946820	3.601030	0.076420
-5.946800	3.601040	0.077780
-5.946710	3.600990	0.079130
-5.946550	3.600910	0.080490
-5.946860	3.601110	0.081850
-5.946420	3.600860	0.083200
-5.947140	3.601320	0.084560
-5.944680	3.599840	0.085880
-5.945850	3.600560	0.087250
-5.950350	3.603300	0.088680
-5.960380	3.609390	0.090190
-5.955370	3.606930	-0.006600
-5.949270	3.603240	-0.005230
-5.946590	3.601640	-0.003880
-5.947020	3.601910	-0.002520
-5.946770	3.601780	-0.001160
-5.947230	3.602070	0.000190
-5.946240	3.601490	0.001550
-5.947000	3.601960	0.002910
-5.946740	3.601820	0.004260
-5.946260	3.601540	0.005620
-5.946330	3.601600	0.006970
-5.947270	3.602180	0.008330
-5.946350	3.601640	0.009680
-5.946100	3.601500	0.011040
-5.946110	3.601520	0.012400
-5.947130	3.602160	0.013750
-5.945950	3.601450	0.015110
-5.946630	3.601890	0.016460
-5.946550	3.601850	0.017820
-5.945260	3.601080	0.019170
-5.946220	3.601680	0.020530
-5.946340	3.601760	0.021890
-5.946040	3.601600	0.023240
-5.945560	3.601320	0.024600
-5.946660	3.602000	0.025960
-5.945790	3.601490	0.027310
-5.946330	3.601840	0.028670
-5.945470	3.601330	0.030020
-5.945920	3.601610	0.031380
-5.946460	3.601960	0.032730
-5.946040	3.601720	0.034090
-5.946100	3.601770	0.035450
-5.945090	3.601170	0.036800
-5.945540	3.601460	0.038150
-5.946240	3.601900	0.039520
-5.946600	3.602130	0.040880
-5.945840	3.601690	0.042230
-5.945870	3.601720	0.043580
-5.945400	3.601450	0.044940
-5.946420	3.602080	0.046300
-5.945970	3.601820	0.047650
-5.945600	3.601610	0.049010
-5.945280	3.601440	0.050360
-5.945330	3.601480	0.051710
-5.945620	3.601670	0.053070
-5.945910	3.601860	0.054430
-5.946180	3.602040	0.055790
-5.946680	3.602350	0.057150
-5.945330	3.601550	0.058490
-5.944940	3.601330	0.059850
-5.945920	3.601940	0.061210
-5.945930	3.601960	0.062570
-5.945200	3.601530	0.063920
-5.946280	3.602200	0.065280
-5.944970	3.601420	0.066630
-5.945620	3.601830	0.067990
-5.945700	3.601900	0.069350
-5.944580	3.601230	0.070690
-5.945330	3.601700	0.072060
-5.945830	3.602020	0.073420
-5.945500	3.601830	0.074770
-5.945580	3.601890	0.076130
-5.946180	3.602270	0.077490
-5.945800	3.602060	0.078840
-5.946120	3.602260	0.080200
-5.945610	3.601970	0.081550
-5.946220	3.602360	0.082920
-5.945840	3.602140	0.084270
-5.944740	3.601490	0.085610
-5.944670	3.601460	0.086960
-5.947420	3.603140	0.088360
-5.956880	3.608880	0.089860
-5.963780	3.613080	0.091320
-5.963220	3.613290	-0.007510
-5.951750	3.606360	-0.006140
-5.947240	3.603640	-0.004780
-5.946410	3.603150	-0.003420
-5.945720	3.602750	-0.002070
-5.945260	3.602480	-0.000710
-5.946240	3.603090	0.000650
-5.944960	3.602330	0.002000
-5.944980	3.602370	0.004710
-5.944800	3.602280	0.006070
-5.945160	3.602510	0.007430
-5.945880	3.602960	0.008780
-5.946320	3.603240	0.010140
-5.945740	3.602910	0.011490
-5.946030	3.603100	0.012850
-5.946040	3.603120	0.014210
-5.945660	3.602900	0.015560
-5.945060	3.602550	0.016910
-5.946000	3.603140	0.018270
-5.945220	3.602680	0.019630
-5.944700	3.602380	0.020980
-5.944350	3.602180	0.022330
-5.945240	3.602740	0.023690
-5.944920	3.602560	0.025050
-5.944890	3.602550	0.026400
-5.944550	3.602360	0.027760
-5.945650	3.603050	0.029120
-5.944780	3.602530	0.030470
-5.945820	3.603180	0.031830
-5.944600	3.602450	0.033180
-5.944410	3.602350	0.034540
-5.944860	3.602640	0.035900
-5.945280	3.602910	0.037260
-5.945100	3.602810	0.038610
-5.944430	3.602420	0.039960
-5.943990	3.602170	0.041310
-5.946400	3.603650	0.042690
-5.945240	3.602960	0.044030
-5.944710	3.602650	0.045380
-5.943800	3.602110	0.046730
-5.944920	3.602810	0.048100
-5.944110	3.602330	0.049450
-5.944220	3.602410	0.050800
-5.944530	3.602620	0.052160
-5.944640	3.602700	0.053520
-5.945250	3.603080	0.054880
-5.944860	3.602860	0.056230
-5.944700	3.602780	0.057580
-5.945290	3.603150	0.058950
-5.943200	3.601900	0.060280
-5.944110	3.602470	0.061650
-5.945290	3.603190	0.063010
-5.944780	3.602900	0.064360
-5.943600	3.602200	0.065710
-5.944560	3.602800	0.067070
-5.945070	3.603120	0.068440
-5.945150	3.603180	0.069790
-5.943770	3.602360	0.071130
-5.944690	3.602930	0.072500
-5.945380	3.603370	0.073870
-5.945200	3.603270	0.075220
-5.944280	3.602730	0.076560
-5.943790	3.602450	0.077910
-5.944690	3.603010	0.079280
-5.944240	3.602750	0.080630
-5.945330	3.603430	0.082000
-5.944360	3.602850	0.083350
-5.944110	3.602710	0.084700
-5.943110	3.602120	0.086040
-5.943350	3.602280	0.087400
-5.950150	3.606420	0.088860
-5.958260	3.611350	0.090340
-5.965930	3.616580	-0.007930
-5.953620	3.609140	-0.006550
-5.947110	3.605200	-0.005190
-5.944510	3.603640	-0.003830
-5.944510	3.603650	-0.002470
-5.944370	3.603590	-0.001120
-5.945030	3.604000	0.000240
-5.944320	3.603590	0.001590
-5.944410	3.603650	0.002950
-5.944350	3.603630	0.004300
-5.944820	3.603930	0.005660
-5.944540	3.603780	0.007010
-5.943720	3.603300	0.008370
-5.944470	3.603760	0.009730
-5.944320	3.603690	0.011080
-5.943730	3.603340	0.012440
-5.944640	3.603910	0.013790
-5.944240	3.603680	0.015150
-5.943990	3.603540	0.016500
-5.944260	3.603720	0.017860
-5.944300	3.603760	0.019220
-5.944630	3.603980	0.020580
-5.943810	3.603490	0.021930
-5.943700	3.603440	0.023280
-5.943630	3.603410	0.024640
-5.943990	3.603640	0.026000
-5.944060	3.603700	0.027350
-5.943330	3.603270	0.028710
-5.944490	3.603990	0.030070
-5.944540	3.604040	0.031420
-5.943510	3.603430	0.032770
-5.943540	3.603460	0.034130
-5.943110	3.603220	0.035480
-5.943900	3.603720	0.036840
-5.943350	3.603400	0.038200
-5.943600	3.603570	0.039550
-5.943050	3.603250	0.040910
-5.943130	3.603320	0.042260
-5.943010	3.603260	0.043620
-5.943740	3.603720	0.044980
-5.943850	3.603800	0.046330
-5.943790	3.603780	0.047690
-5.944350	3.604130	0.049050
-5.942860	3.603240	0.050390
-5.943730	3.603770	0.051760
-5.943910	3.603900	0.053110
-5.943820	3.603860	0.054470
-5.943850	3.603890	0.055820
-5.943670	3.603790	0.057180
-5.942710	3.603220	0.058520
-5.943220	3.603540	0.059890
-5.943900	3.603970	0.061250
-5.943540	3.603770	0.062600
-5.943180	3.603570	0.063950
-5.943450	3.603750	0.065310
-5.943310	3.603680	0.066670
-5.943640	3.603900	0.068030
-5.943640	3.603920	0.069380
-5.943340	3.603750	0.070740
-5.944180	3.604270	0.072100
-5.943580	3.603930	0.073450
-5.943910	3.604140	0.074810
-5.944310	3.604400	0.076170
-5.942950	3.603590	0.077510
-5.943970	3.604220	0.078880
-5.943780	3.604120	0.080230
-5.943430	3.603920	0.081580
-5.943370	3.603890	0.082940
-5.942150	3.603170	0.084280
-5.941370	3.602710	0.085620
-5.942800	3.603590	0.087000
-5.946280	3.605710	0.088410
-5.956420	3.611870	0.089920
-5.964040	3.617040	-0.008690
-5.958730	3.613830	-0.007330
-5.949500	3.608250	-0.005960
-5.945510	3.605850	-0.004600
-5.943750	3.604800	-0.003240
-5.943760	3.604820	-0.001890
-5.943180	3.604480	-0.000530
-5.942660	3.604180	0.000830
-5.943570	3.604750	0.002180
-5.942930	3.604370	0.003540
-5.942960	3.604410	0.004890
-5.942470	3.604130	0.006250
-5.942880	3.604390	0.007600
-5.943310	3.604660	0.008960
-5.944250	3.605250	0.010310
-5.942380	3.604130	0.011670
-5.943780	3.604990	0.013020
-5.942450	3.604200	0.014370
-5.943000	3.604550	0.015730
-5.943770	3.605030	0.017090
-5.942130	3.604050	0.018440
-5.942460	3.604270	0.019790
-5.942960	3.604580	0.021150
-5.943000	3.604620	0.022510
-5.943150	3.604730	0.023860
-5.942760	3.604510	0.025220
-5.942200	3.604180	0.026570
-5.942730	3.604520	0.027930
-5.943670	3.605100	0.029290
-5.943110	3.604780	0.030640
-5.942800	3.604600	0.031990
-5.942970	3.604720	0.033350
-5.942090	3.604200	0.034700
-5.942580	3.604520	0.036060
-5.942440	3.604440	0.037410
-5.942500	3.604500	0.038770
-5.942910	3.604770	0.041480
-5.942560	3.604570	0.042830
-5.941900	3.604190	0.044180
-5.942560	3.604600	0.045540
-5.942860	3.604800	0.046900
-5.942630	3.604680	0.048260
-5.942100	3.604370	0.049610
-5.942300	3.604510	0.050960
-5.942040	3.604360	0.052320
-5.942330	3.604560	0.053680
-5.942800	3.604850	0.055040
-5.942480	3.604680	0.056390
-5.943130	3.605080	0.057750
-5.941800	3.604290	0.059090
-5.942320	3.604620	0.060450
-5.942570	3.604790	0.061810
-5.942130	3.604530	0.063160
-5.942620	3.604850	0.064520
-5.942740	3.604930	0.065880
-5.942870	3.605030	0.067240
-5.942570	3.604860	0.068590
-5.942940	3.605100	0.069950
-5.942800	3.605030	0.071310
-5.942360	3.604780	0.072660
-5.942640	3.604960	0.074010
-5.942000	3.604590	0.075360
-5.942510	3.604910	0.076720
-5.942950	3.605190	0.078090
-5.942130	3.604710	0.079430
-5.942150	3.604740	0.080790
-5.942360	3.604880	0.082150
-5.942840	3.605190	0.083510
-5.941090	3.604140	0.084840
-5.940760	3.603960	0.086190
-5.942360	3.604940	0.087570
-5.950060	3.609620	0.089040
-5.965360	3.619450	-0.009400
-5.961010	3.616830	-0.008030
-5.953530	3.612310	-0.006670
-5.945440	3.607420	-0.005300
-5.943320	3.606140	-0.003940
-5.942990	3.605960	-0.002590
-5.942750	3.605830	-0.001230
-5.942890	3.605930	0.000120
-5.942640	3.605790	0.001480
-5.942160	3.605520	0.002840
-5.942430	3.605690	0.004190
-5.943400	3.606300	0.005550
-5.941590	3.605210	0.006910
-5.942270	3.605640	0.008260
-5.941900	3.605430	0.009620
-5.942060	3.605550	0.010970
-5.942770	3.605990	0.012330
-5.942420	3.605790	0.013690
-5.942300	3.605740	0.015040
-5.942020	3.605580	0.016400
-5.942560	3.605920	0.017750
-5.942920	3.606150	0.019110
-5.940840	3.604910	0.020460
-5.942150	3.605720	0.021820
-5.942840	3.606150	0.023180
-5.941920	3.605600	0.024530
-5.941470	3.605350	0.025880
-5.941620	3.605450	0.027240
-5.941660	3.605490	0.028590
-5.941800	3.605590	0.029950
-5.941460	3.605400	0.031300
-5.941080	3.605180	0.032660
-5.941330	3.605350	0.034010
-5.941920	3.605720	0.035370
-5.941070	3.605220	0.036720
-5.941230	3.605330	0.038080
-5.941380	3.605440	0.039440
-5.941400	3.605460	0.040790
-5.940370	3.604860	0.042140
-5.940380	3.604880	0.043490
-5.941690	3.605680	0.044860
-5.941550	3.605620	0.046220
-5.941550	3.605630	0.047570
-5.941430	3.605570	0.048930
-5.941900	3.605870	0.050290
-5.941070	3.605380	0.051640
-5.941750	3.605810	0.053000
-5.941300	3.605550	0.054350
-5.942060	3.606030	0.055710
-5.940750	3.605250	0.057060
-5.941480	3.605700	0.058420
-5.940660	3.605230	0.059770
-5.940830	3.605340	0.061120
-5.941400	3.605700	0.062480
-5.941020	3.605490	0.063830
-5.940840	3.605390	0.065190
-5.941180	3.605610	0.066540
-5.941480	3.605810	0.067900
-5.941300	3.605720	0.069260
-5.941680	3.605960	0.070620
-5.941590	3.605920	0.071970
-5.941670	3.605980	0.073330
-5.940840	3.605490	0.074670
-5.941780	3.606080	0.076040
-5.941400	3.605870	0.077390
-5.941580	3.605990	0.078750
-5.940920	3.605600	0.080100
-5.941980	3.606260	0.081470
-5.941320	3.605880	0.082810
-5.941550	3.606030	0.084170
-5.938790	3.604370	0.085490
-5.939910	3.605060	0.086860
-5.945370	3.608390	0.088300
-5.959850	3.617190	0.089870
-5.957480	3.616330	-0.006880
-5.947230	3.610120	-0.005510
-5.942340	3.607170	-0.004140
-5.941700	3.606790	-0.002790
-5.941890	3.606920	-0.001430
-5.941020	3.606410	-0.000070
-5.941720	3.606850	0.001280
-5.940770	3.606290	0.002640
-5.941430	3.606710	0.004000
-5.941240	3.606610	0.005350
-5.940440	3.606130	0.006710
-5.941200	3.606610	0.008060
-5.940430	3.606160	0.009420
-5.941680	3.606930	0.010780
-5.942130	3.607210	0.012130
-5.941110	3.606610	0.013490
-5.940320	3.606150	0.014840
-5.941120	3.606650	0.016200
-5.940400	3.606230	0.017550
-5.940290	3.606180	0.018910
-5.940950	3.606590	0.020270
-5.940090	3.606080	0.021620
-5.939330	3.605630	0.022970
-5.940940	3.606620	0.024330
-5.940850	3.606580	0.025690
-5.940530	3.606410	0.027040
-5.939670	3.605900	0.028400
-5.940230	3.606250	0.029760
-5.940300	3.606310	0.031110
-5.940750	3.606600	0.032470
-5.939280	3.605720	0.033820
-5.938670	3.605370	0.035170
-5.939300	3.605760	0.036530
-5.938700	3.605410	0.037880
-5.937790	3.604880	0.039230
-5.938740	3.605470	0.040590
-5.938940	3.605600	0.041950
-5.938160	3.605150	0.043300
-5.939040	3.605690	0.044660
-5.939530	3.606000	0.046020
-5.938190	3.605210	0.047360
-5.938620	3.605490	0.048720
-5.939720	3.606170	0.050080
-5.938850	3.605650	0.051430
-5.940560	3.606710	0.052800
-5.940050	3.606410	0.054150
-5.939750	3.606250	0.055510
-5.939550	3.606140	0.056860
-5.940290	3.606600	0.058220
-5.939800	3.606320	0.059570
-5.940370	3.606680	0.060930
-5.940350	3.606680	0.062290
-5.940490	3.606780	0.063640
-5.939560	3.606230	0.064990
-5.939570	3.606250	0.066350
-5.940460	3.606810	0.067710
-5.940040	3.606560	0.069070
-5.940770	3.607020	0.070430
-5.940350	3.606780	0.071780
-5.940500	3.606890	0.073140
-5.940290	3.606780	0.074500
-5.940610	3.606990	0.075860
-5.940630	3.607010	0.077210
-5.939850	3.606550	0.078560
-5.940500	3.606960	0.079930
-5.940370	3.606900	0.081280
-5.939670	3.606490	0.082630
-5.939830	3.606600	0.083980
-5.939240	3.606260	0.085330
-5.938930	3.606080	0.086680
-5.943420	3.608820	0.088110
-5.960500	3.619210	0.089720
-5.955600	3.616740	-0.006500
-5.943620	3.609480	-0.005140
-5.941320	3.608110	-0.003780
-5.940410	3.607570	-0.002420
-5.940270	3.607500	-0.001070
-5.939810	3.607240	0.000290
-5.940610	3.607730	0.001650
-5.939820	3.607270	0.003000
-5.940130	3.607470	0.004360
-5.940800	3.607890	0.005720
-5.940640	3.607810	0.007070
-5.939390	3.607060	0.008430
-5.939820	3.607340	0.009780
-5.939770	3.607320	0.011140
-5.940390	3.607720	0.012500
-5.939940	3.607460	0.013850
-5.940080	3.607560	0.015210
-5.939810	3.607410	0.016560
-5.939800	3.607420	0.017920
-5.940670	3.607960	0.019270
-5.939160	3.607060	0.020620
-5.939320	3.607170	0.021980
-5.940180	3.607710	0.023340
-5.939150	3.607100	0.024690
-5.938760	3.606870	0.026040
-5.938830	3.606930	0.027400
-5.938620	3.606820	0.028750
-5.938550	3.606790	0.030110
-5.936300	3.605440	0.031450
-5.935740	3.605110	0.032800
-5.935270	3.604850	0.034150
-5.933180	3.603590	0.035500
-5.931890	3.602820	0.036840
-5.931320	3.602490	0.038190
-5.930860	3.602230	0.039550
-5.930580	3.602070	0.040900
-5.930410	3.601980	0.042250
-5.930750	3.602200	0.043610
-5.931570	3.602710	0.044970
-5.933670	3.604010	0.046340
-5.936060	3.605470	0.047710
-5.936270	3.605610	0.049070
-5.935720	3.605290	0.050420
-5.937310	3.606270	0.051790
-5.937790	3.606580	0.053150
-5.938700	3.607150	0.054510
-5.938590	3.607100	0.055870
-5.939050	3.607390	0.057230
-5.938810	3.607260	0.058580
-5.938890	3.607320	0.059940
-5.938950	3.607370	0.061290
-5.938630	3.607190	0.062640
-5.939900	3.607980	0.064010
-5.939640	3.607840	0.065360
-5.939650	3.607860	0.066720
-5.939460	3.607760	0.068070
-5.938660	3.607290	0.069410
-5.939220	3.607640	0.070770
-5.940030	3.608150	0.072140
-5.939240	3.607680	0.073480
-5.939600	3.607920	0.074840
-5.939970	3.608150	0.076210
-5.939290	3.607760	0.077550
-5.938990	3.607590	0.078900
-5.939570	3.607960	0.080270
-5.940540	3.608560	0.081640
-5.939300	3.607820	0.082980
-5.938990	3.607650	0.084330
-5.937490	3.606750	0.085660
-5.938120	3.607150	0.087030
-5.943240	3.610270	0.088460
-5.946910	3.613050	-0.006030
-5.939640	3.608650	-0.004670
-5.939880	3.608810	-0.003310
-5.939240	3.608430	-0.001960
-5.939590	3.608660	-0.000600
-5.939040	3.608340	0.000760
-5.939370	3.608560	0.002110
-5.939020	3.608360	0.003470
-5.939210	3.608490	0.004820
-5.938320	3.607970	0.006180
-5.939120	3.608470	0.007530
-5.938580	3.608150	0.008890
-5.939580	3.608770	0.010250
-5.939130	3.608520	0.011600
-5.938900	3.608390	0.012960
-5.939000	3.608470	0.014310
-5.939200	3.608600	0.015670
-5.938200	3.608010	0.017020
-5.937650	3.607690	0.018370
-5.938610	3.608290	0.019730
-5.937850	3.607840	0.021080
-5.937190	3.607450	0.022440
-5.937500	3.607660	0.023790
-5.936160	3.606860	0.025140
-5.935710	3.606600	0.026500
-5.928220	3.602080	0.029170
-5.923520	3.599240	0.030500
-5.920540	3.597440	0.031840
-5.917900	3.595860	0.033170
-5.914400	3.593750	0.034500
-5.910920	3.591640	0.035830
-5.910290	3.591270	0.037180
-5.909240	3.590660	0.038520
-5.909050	3.590550	0.039870
-5.908460	3.590210	0.041210
-5.908540	3.590270	0.042560
-5.910910	3.591720	0.043930
-5.911100	3.591860	0.045280
-5.914480	3.593920	0.046660
-5.917280	3.595640	0.048030
-5.920570	3.597660	0.049410
-5.924240	3.599890	0.050790
-5.928140	3.602280	0.052180
-5.932470	3.604930	0.053570
-5.934550	3.606210	0.054940
-5.936020	3.607110	0.056310
-5.936930	3.607680	0.057670
-5.937530	3.608060	0.059030
-5.937770	3.608220	0.060390
-5.937480	3.608060	0.061740
-5.937970	3.608370	0.063100
-5.938100	3.608460	0.064460
-5.938460	3.608700	0.065820
-5.937810	3.608310	0.067170
-5.938240	3.608590	0.068530
-5.938130	3.608540	0.069880
-5.938150	3.608560	0.071240
-5.939220	3.609220	0.072610
-5.937640	3.608280	0.073950
-5.938060	3.608550	0.075310
-5.938060	3.608560	0.076660
-5.939310	3.609330	0.078040
-5.938530	3.608870	0.079380
-5.937490	3.608260	0.080720
-5.938530	3.608900	0.082090
-5.938260	3.608750	0.083440
-5.937690	3.608420	0.084790
-5.935520	3.607120	0.086110
-5.937450	3.608300	0.087490
-5.944900	3.612840	0.088960
-5.945710	3.613900	-0.006010
-5.938810	3.609720	-0.004650
-5.938630	3.609630	-0.003290
-5.938710	3.609690	-0.001940
-5.938440	3.609540	-0.000580
-5.938170	3.609390	0.000780
-5.938910	3.609860	0.002140
-5.938320	3.609510	0.003490
-5.937670	3.609130	0.004850
-5.938300	3.609530	0.006210
-5.938500	3.609670	0.007560
-5.937880	3.609300	0.008920
-5.938000	3.609390	0.010270
-5.937140	3.608880	0.011630
-5.937310	3.609000	0.012990
-5.937470	3.609110	0.014340
-5.937530	3.609160	0.015700
-5.936960	3.608830	0.017050
-5.935980	3.608250	0.018400
-5.937160	3.608990	0.019760
-5.934920	3.607630	0.021110
-5.933390	3.606720	0.022460
-5.929200	3.604190	0.023800
-5.922680	3.600240	0.025120
-5.918160	3.597510	0.026460
-5.912890	3.594320	0.027780
-5.908230	3.591500	0.029110
-5.904360	3.589160	0.030440
-5.902280	3.587920	0.031770
-5.899900	3.586480	0.033110
-5.897870	3.585270	0.034440
-5.896380	3.584390	0.037120
-5.895510	3.583880	0.038460
-5.895850	3.584100	0.039810
-5.895020	3.583610	0.041150
-5.895250	3.583760	0.042500
-5.896050	3.584260	0.043850
-5.897050	3.584880	0.045210
-5.897570	3.585220	0.046560
-5.899500	3.586410	0.047920
-5.900450	3.586990	0.049280
-5.903990	3.589160	0.050660
-5.909120	3.592290	0.052050
-5.912780	3.594530	0.053440
-5.920490	3.599230	0.054860
-5.925890	3.602530	0.056270
-5.930030	3.605060	0.057660
-5.933200	3.607000	0.059050
-5.935010	3.608120	0.060420
-5.936160	3.608830	0.061790
-5.936630	3.609130	0.063150
-5.937500	3.609680	0.064510
-5.936960	3.609360	0.065860
-5.936760	3.609250	0.067210
-5.937420	3.609670	0.068570
-5.936230	3.608960	0.069910
-5.936930	3.609400	0.071280
-5.937040	3.609480	0.072630
-5.937000	3.609470	0.073990
-5.936770	3.609350	0.075340
-5.936810	3.609390	0.076700
-5.936930	3.609480	0.078060
-5.938000	3.610140	0.079430
-5.937850	3.610060	0.080780
-5.937080	3.609610	0.082130
-5.937640	3.609970	0.083500
-5.936300	3.609160	0.084830
-5.935340	3.608590	0.086180
-5.935930	3.608970	0.087540
-5.944380	3.614120	0.089020
-5.939090	3.611480	-0.005620
-5.937830	3.610730	-0.004260
-5.937640	3.610620	-0.002910
-5.936540	3.609970	-0.001550
-5.937680	3.610680	-0.000200
-5.936640	3.610060	0.001160
-5.937100	3.610350	0.002510
-5.936060	3.609740	0.003860
-5.938380	3.611160	0.005220
-5.937050	3.610370	0.006570
-5.936920	3.610310	0.007930
-5.937050	3.610400	0.009280
-5.936340	3.609980	0.010640
-5.937140	3.610480	0.012000
-5.936940	3.610380	0.013350
-5.936160	3.609920	0.014710
-5.935750	3.609680	0.016060
-5.935150	3.609330	0.017420
-5.933110	3.608100	0.018770
-5.929270	3.605790	0.020110
-5.921620	3.601150	0.021430
-5.913990	3.596520	0.022760
-5.907730	3.592730	0.024080
-5.903090	3.589930	0.025410
-5.898570	3.587190	0.026740
-5.895710	3.585470	0.028070
-5.894870	3.584970	0.029410
-5.892530	3.583570	0.030750
-5.891830	3.583150	0.032090
-5.891680	3.583080	0.033430
-5.891310	3.582870	0.034770
-5.890850	3.582600	0.036120
-5.890590	3.582460	0.037460
-5.890360	3.582330	0.038800
-5.890190	3.582250	0.040150
-5.890330	3.582340	0.041490
-5.890130	3.582240	0.042830
-5.890230	3.582310	0.044180
-5.890670	3.582600	0.045530
-5.891010	3.582810	0.046870
-5.892180	3.583540	0.048230
-5.893090	3.584110	0.049580
-5.893350	3.584280	0.050930
-5.894670	3.585100	0.052290
-5.897320	3.586730	0.053660
-5.901830	3.589480	0.055050
-5.907580	3.592990	0.056450
-5.913340	3.596510	0.057860
-5.922070	3.601830	0.059300
-5.927820	3.605340	0.060710
-5.931400	3.607540	0.062100
-5.933430	3.608790	0.063480
-5.935020	3.609770	0.064850
-5.934930	3.609730	0.066210
-5.935620	3.610160	0.067570
-5.936190	3.610520	0.068930
-5.935100	3.609880	0.070270
-5.935990	3.610430	0.071640
-5.935740	3.610290	0.072990
-5.936810	3.610960	0.074360
-5.936220	3.610610	0.075710
-5.935650	3.610280	0.077050
-5.935760	3.610360	0.078410
-5.936520	3.610840	0.079770
-5.936690	3.610960	0.081130
-5.936670	3.610960	0.082490
-5.935490	3.610260	0.083820
-5.934430	3.609630	0.085160
-5.933920	3.609330	0.086510
-5.934780	3.609870	0.087880
-5.937920	3.612360	-0.005660
-5.935880	3.611130	-0.004310
-5.936080	3.611270	-0.002950
-5.936140	3.611320	-0.001600
-5.936020	3.611260	-0.000240
-5.935870	3.611180	0.001110
-5.936710	3.611710	0.002470
-5.936450	3.611570	0.003820
-5.935820	3.611200	0.005180
-5.935610	3.611090	0.006530
-5.935720	3.611170	0.007890
-5.935120	3.610820	0.009240
-5.935090	3.610820	0.010590
-5.934850	3.610680	0.011950
-5.935130	3.610870	0.013300
-5.934160	3.610290	0.014660
-5.932240	3.609140	0.016000
-5.927660	3.606370	0.017340
-5.919160	3.601210	0.018670
-5.910920	3.596220	0.019990
-5.903210	3.591550	0.021310
-5.897200	3.587900	0.022630
-5.895280	3.586750	0.023970
-5.892490	3.585060	0.025300
-5.891210	3.584300	0.026640
-5.890110	3.583650	0.027980
-5.889770	3.583460	0.029320
-5.888680	3.582810	0.030660
-5.888040	3.582430	0.032010
-5.887560	3.582160	0.033350
-5.886830	3.581720	0.034690
-5.886950	3.581820	0.036040
-5.886470	3.581540	0.037380
-5.886350	3.581480	0.038720
-5.886100	3.581340	0.040070
-5.886150	3.581380	0.041410
-5.886420	3.581570	0.042760
-5.886650	3.581720	0.044110
-5.886750	3.581800	0.045450
-5.886620	3.581730	0.046790
-5.887810	3.582470	0.048150
-5.888260	3.582760	0.049490
-5.888620	3.582990	0.050840
-5.889730	3.583680	0.052190
-5.890380	3.584090	0.053540
-5.891710	3.584910	0.054900
-5.893510	3.586020	0.056260
-5.895830	3.587450	0.057630
-5.900730	3.590440	0.059020
-5.908890	3.595420	0.060450
-5.917530	3.600700	0.061890
-5.926060	3.605890	0.063340
-5.930850	3.608820	0.064740
-5.933090	3.610210	0.066120
-5.933510	3.610470	0.067480
-5.933790	3.610660	0.068840
-5.935300	3.611590	0.070210
-5.934440	3.611080	0.071550
-5.935440	3.611700	0.072920
-5.934900	3.611390	0.074270
-5.935160	3.611560	0.075630
-5.934820	3.611380	0.076980
-5.935040	3.611520	0.078340
-5.935710	3.611940	0.079700
-5.934910	3.611470	0.081050
-5.935140	3.611630	0.082410
-5.934540	3.611280	0.083750
-5.933480	3.610650	0.085090
-5.931890	3.609690	0.086420
-5.934570	3.611340	0.087820
-5.935100	3.612290	-0.005060
-5.935390	3.612480	-0.003710
-5.935040	3.612280	-0.002350
-5.935220	3.612410	-0.001000
-5.934550	3.612020	0.000360
-5.935420	3.612560	0.001710
-5.934980	3.612300	0.003070
-5.934510	3.612030	0.004420
-5.934170	3.611840	0.005780
-5.935020	3.612380	0.007130
-5.935200	3.612500	0.008490
-5.934530	3.612100	0.009840
-5.934030	3.611820	0.011190
-5.933530	3.611530	0.012550
-5.928250	3.608330	0.013890
-5.921690	3.604350	0.015230
-5.912040	3.598490	0.016550
-5.903280	3.593180	0.017870
-5.897370	3.589600	0.019200
-5.893650	3.587350	0.020540
-5.891410	3.586000	0.021870
-5.889880	3.585080	0.023210
-5.888710	3.584390	0.024560
-5.887230	3.583500	0.025890
-5.886600	3.583130	0.027240
-5.886110	3.582850	0.028580
-5.885210	3.582310	0.029920
-5.884530	3.581920	0.031260
-5.884330	3.581810	0.032610
-5.884090	3.581680	0.033950
-5.883520	3.581350	0.035290
-5.883810	3.581530	0.036640
-5.883770	3.581520	0.037980
-5.882550	3.580800	0.039320
-5.882930	3.581040	0.040660
-5.883120	3.581170	0.042010
-5.883160	3.581210	0.043350
-5.883660	3.581530	0.044700
-5.883630	3.581530	0.046040
-5.884240	3.581910	0.047390
-5.884410	3.582030	0.048730
-5.884900	3.582350	0.050080
-5.885620	3.582800	0.051430
-5.885940	3.583010	0.052780
-5.887060	3.583700	0.054130
-5.888020	3.584300	0.055490
-5.889280	3.585080	0.056840
-5.890450	3.585810	0.058200
-5.893180	3.587480	0.059570
-5.895140	3.588690	0.060940
-5.901250	3.592430	0.062350
-5.910530	3.598090	0.063800
-5.920070	3.603910	0.065260
-5.928660	3.609150	0.066710
-5.931190	3.610710	0.068090
-5.931920	3.611170	0.069450
-5.932410	3.611480	0.070810
-5.932870	3.611770	0.072170
-5.934440	3.612740	0.073550
-5.933770	3.612350	0.074890
-5.934030	3.612520	0.076250
-5.934360	3.612740	0.077610
-5.933760	3.612390	0.078960
-5.934380	3.612780	0.080320
-5.934230	3.612700	0.081680
-5.933680	3.612390	0.083020
-5.933750	3.612440	0.084380
-5.931370	3.611010	0.085700
-5.932530	3.611730	0.087070
-5.933870	3.612560	0.088440
-5.933250	3.612810	-0.004910
-5.934550	3.613610	-0.003560
-5.934430	3.613550	-0.002200
-5.933970	3.613290	-0.000850
-5.933240	3.612860	0.000510
-5.934010	3.613340	0.001860
-5.933060	3.612780	0.003220
-5.933400	3.613000	0.004570
-5.933160	3.612870	0.005930
-5.933320	3.612980	0.007280
-5.933260	3.612960	0.008640
-5.931880	3.612130	0.009990
-5.931100	3.611680	0.011350
-5.924970	3.607960	0.012690
-5.916000	3.602510	0.014020
-5.904620	3.595590	0.015340
-5.896340	3.590570	0.016660
-5.892100	3.588010	0.018000
-5.890940	3.587320	0.019340
-5.888900	3.586080	0.020680
-5.887380	3.585180	0.022010
-5.886310	3.584540	0.023350
-5.885150	3.583850	0.024690
-5.884060	3.583200	0.026030
-5.883400	3.582810	0.027370
-5.883260	3.582740	0.028720
-5.882430	3.582250	0.030060
-5.881470	3.581680	0.031390
-5.881670	3.581810	0.032740
-5.881140	3.581510	0.034080
-5.880750	3.581280	0.035420
-5.880730	3.581290	0.036760
-5.880830	3.581360	0.038110
-5.880650	3.581270	0.039450
-5.880370	3.581110	0.040790
-5.880660	3.581310	0.042130
-5.880610	3.581280	0.043480
-5.881190	3.581660	0.044820
-5.880540	3.581280	0.046160
-5.881180	3.581680	0.047510
-5.881300	3.581760	0.048860
-5.882320	3.582400	0.050210
-5.882880	3.582750	0.051560
-5.883170	3.582950	0.052910
-5.884100	3.583530	0.054260
-5.884770	3.583950	0.055610
-5.885460	3.584390	0.056960
-5.886550	3.585060	0.058320
-5.887960	3.585940	0.059680
-5.889740	3.587040	0.061040
-5.891880	3.588360	0.062410
-5.895470	3.590550	0.063790
-5.903690	3.595570	0.065230
-5.913950	3.601840	0.066690
-5.924320	3.608160	0.068160
-5.928910	3.610970	0.069570
-5.931680	3.612670	0.070950
-5.932670	3.613290	0.072320
-5.932650	3.613290	0.073680
-5.932410	3.613160	0.075030
-5.933390	3.613780	0.076400
-5.932700	3.613370	0.077740
-5.932470	3.613240	0.079100
-5.932590	3.613330	0.080450
-5.933200	3.613720	0.081820
-5.932520	3.613320	0.083160
-5.930970	3.612390	0.084500
-5.930420	3.612070	0.085840
-5.931060	3.612470	0.087210
-5.930440	3.612110	0.088550
-5.933340	3.614510	-0.004770
-5.933310	3.614510	-0.003420
-5.933290	3.614510	-0.002060
-5.933520	3.614670	-0.000700
-5.932760	3.614220	0.000650
-5.932480	3.614060	0.002010
-5.933070	3.614430	0.003370
-5.933220	3.614540	0.004720
-5.932430	3.614090	0.007430
-5.930710	3.613050	0.008780
-5.927130	3.610890	0.010130
-5.919270	3.606110	0.011470
-5.907560	3.598990	0.012790
-5.898410	3.593440	0.014120
-5.892980	3.590140	0.015450
-5.890060	3.588380	0.016790
-5.887850	3.587050	0.018130
-5.886440	3.586200	0.019470
-5.885110	3.585410	0.020810
-5.884270	3.584910	0.022150
-5.883120	3.584230	0.023490
-5.882160	3.583650	0.024830
-5.881480	3.583260	0.026170
-5.880970	3.582960	0.027510
-5.880390	3.582620	0.028850
-5.880020	3.582410	0.030190
-5.879310	3.581990	0.031530
-5.879110	3.581880	0.032870
-5.878290	3.581400	0.034210
-5.878560	3.581570	0.035550
-5.877830	3.581150	0.036890
-5.878270	3.581430	0.038240
-5.878040	3.581300	0.039580
-5.877710	3.581120	0.040920
-5.878170	3.581400	0.042270
-5.877820	3.581210	0.043610
-5.878370	3.581550	0.044960
-5.878250	3.581500	0.046300
-5.878780	3.581840	0.047650
-5.879240	3.582130	0.048990
-5.879270	3.582160	0.050340
-5.879740	3.582460	0.051680
-5.880350	3.582850	0.053030
-5.880780	3.583120	0.054380
-5.881880	3.583810	0.055730
-5.882390	3.584130	0.057080
-5.883320	3.584710	0.058430
-5.884750	3.585600	0.059790
-5.885150	3.585860	0.061130
-5.886830	3.586900	0.062490
-5.889300	3.588410	0.063860
-5.891910	3.590020	0.065240
-5.897120	3.593200	0.066640
-5.906830	3.599130	0.068100
-5.918690	3.606370	0.069590
-5.927050	3.611480	0.071050
-5.930190	3.613410	0.072440
-5.930340	3.613510	0.073800
-5.930850	3.613840	0.075160
-5.930730	3.613780	0.076510
-5.932430	3.614830	0.077890
-5.930940	3.613930	0.079230
-5.932290	3.614770	0.080600
-5.931890	3.614540	0.081950
-5.931320	3.614210	0.083300
-5.930470	3.613700	0.084640
-5.929220	3.612960	0.085970
-5.929700	3.613270	0.087340
-5.929230	3.613650	-0.005710
-5.931610	3.615120	-0.004350
-5.931650	3.615150	-0.003000
-5.931850	3.615290	-0.001640
-5.931600	3.615150	-0.000290
-5.932110	3.615480	0.001060
-5.931930	3.615390	0.002420
-5.931410	3.615080	0.003770
-5.931440	3.615110	0.005130
-5.930370	3.614470	0.006480
-5.927700	3.612860	0.007830
-5.918860	3.607490	0.009170
-5.908220	3.601030	0.010500
-5.898150	3.594900	0.011830
-5.892090	3.591230	0.013160
-5.888640	3.589140	0.014500
-5.886960	3.588130	0.015840
-5.885420	3.587200	0.017180
-5.884170	3.586460	0.018520
-5.882700	3.585580	0.019860
-5.881760	3.585020	0.021200
-5.880570	3.584300	0.022540
-5.880070	3.584020	0.023880
-5.879050	3.583410	0.025220
-5.878510	3.583100	0.026560
-5.877720	3.582630	0.027900
-5.877460	3.582490	0.029240
-5.876710	3.582040	0.030580
-5.876580	3.581980	0.031920
-5.876260	3.581800	0.033260
-5.876020	3.581670	0.034600
-5.875740	3.581510	0.035940
-5.875620	3.581450	0.037280
-5.875640	3.581480	0.038620
-5.875690	3.581520	0.039970
-5.875520	3.581430	0.041310
-5.875320	3.581320	0.042650
-5.875390	3.581390	0.043990
-5.875540	3.581490	0.045340
-5.876140	3.581870	0.046680
-5.876250	3.581950	0.048030
-5.876800	3.582300	0.049380
-5.877140	3.582520	0.050720
-5.877340	3.582660	0.052070
-5.878040	3.583100	0.053420
-5.878630	3.583470	0.054760
-5.878830	3.583610	0.056110
-5.879840	3.584240	0.057460
-5.880710	3.584780	0.058810
-5.881620	3.585360	0.060170
-5.882730	3.586040	0.061520
-5.884130	3.586910	0.062880
-5.885620	3.587840	0.064240
-5.887350	3.588900	0.065600
-5.889970	3.590520	0.066980
-5.894050	3.593020	0.068370
-5.903490	3.598790	0.069830
-5.915850	3.606330	0.071330
-5.925470	3.612210	0.072800
-5.928300	3.613950	0.074190
-5.929010	3.614400	0.075550
-5.930010	3.615020	0.076920
-5.930200	3.615150	0.078280
-5.930850	3.615560	0.079640
-5.929740	3.614900	0.080980
-5.930680	3.615490	0.082350
-5.930040	3.615120	0.083690
-5.928940	3.614460	0.085030
-5.928410	3.614150	0.086380
-5.929570	3.614870	0.087750
-5.930510	3.616010	-0.005250
-5.930870	3.616240	-0.003890
-5.931330	3.616540	-0.002540
-5.931000	3.616350	-0.001180
-5.930740	3.616210	0.000170
-5.930500	3.616080	0.001530
-5.930850	3.616300	0.002880
-5.929570	3.615540	0.004230
-5.929140	3.615290	0.005590
-5.922560	3.611300	0.006940
-5.911670	3.604670	0.008270
-5.899590	3.597320	0.009610
-5.892300	3.592890	0.010940
-5.888660	3.590690	0.012280
-5.885990	3.589080	0.013620
-5.884280	3.588050	0.014960
-5.882850	3.587190	0.016300
-5.881980	3.586670	0.017640
-5.880680	3.585900	0.018980
-5.879260	3.585050	0.020320
-5.878630	3.584680	0.021660
-5.878100	3.584370	0.023000
-5.877030	3.583730	0.024340
-5.876170	3.583220	0.025680
-5.875830	3.583030	0.027020
-5.874860	3.582450	0.028360
-5.874970	3.582530	0.029700
-5.874590	3.582320	0.031040
-5.874170	3.582070	0.032380
-5.873780	3.581850	0.033720
-5.873700	3.581820	0.035060
-5.873580	3.581760	0.036400
-5.873560	3.581760	0.037740
-5.873180	3.581540	0.039080
-5.873470	3.581740	0.040430
-5.873090	3.581520	0.041770
-5.873060	3.581510	0.043110
-5.873770	3.581960	0.044460
-5.873600	3.581870	0.045800
-5.873860	3.582050	0.047140
-5.874100	3.582200	0.048490
-5.874410	3.582410	0.049830
-5.874720	3.582610	0.051180
-5.875340	3.583010	0.052520
-5.875630	3.583200	0.053870
-5.876380	3.583670	0.055220
-5.877100	3.584120	0.056570
-5.877770	3.584540	0.057920
-5.878820	3.585200	0.059270
-5.879340	3.585530	0.060620
-5.880710	3.586380	0.061980
-5.881540	3.586900	0.063330
-5.882990	3.587800	0.064690
-5.884140	3.588520	0.066050
-5.886410	3.589920	0.067420
-5.889040	3.591540	0.068790
-5.893700	3.594390	0.070190
-5.903720	3.600520	0.071660
-5.917630	3.609010	0.073180
-5.925250	3.613670	0.074630
-5.928350	3.615570	0.076030
-5.929050	3.616010	0.077390
-5.928500	3.615700	0.078740
-5.929400	3.616260	0.080100
-5.928890	3.615970	0.081450
