-5.932620	3.603920	1.588040
-5.931940	3.603530	1.589290
-5.932060	3.603610	1.590740
-5.931440	3.603250	1.592010
-5.931840	3.603510	1.593540
-5.931990	3.603620	1.595010
-5.932760	3.604100	1.596650
-5.932380	3.603880	1.597970
-5.932080	3.603720	1.599320
-5.931780	3.603550	1.600670
-5.930720	3.602920	1.601810
-5.931600	3.603470	1.603480
-5.932000	3.603730	1.605020
-5.932230	3.603880	1.606510
-5.931170	3.603260	1.607650
-5.931560	3.603500	1.609180
-5.931640	3.603570	1.610640
-5.931720	3.603630	1.612090
-5.932550	3.604150	1.613740
-5.931900	3.603770	1.615000
-5.931480	3.603530	1.616320
-5.931630	3.603640	1.617790
-5.930940	3.603230	1.619030
-5.930540	3.603010	1.620350
-5.931040	3.603330	1.621920
-5.930910	3.603260	1.623320
-5.930950	3.603300	1.624760
-5.929880	3.602670	1.625900
-5.931470	3.603650	1.627760
-5.931990	3.603980	1.629340
-5.930840	3.603300	1.630460
-5.931300	3.603590	1.632010
-5.930820	3.603310	1.633310
-5.931980	3.604030	1.635070
-5.930280	3.603020	1.636030
-5.931690	3.603890	1.637850
-5.931220	3.603620	1.639160
-5.930320	3.603080	1.640340
-5.931060	3.603550	1.641980
-5.930930	3.603490	1.643380
-5.931000	3.603540	1.644830
-5.931110	3.603630	1.646290
-5.931210	3.603700	1.647750
-5.931020	3.603600	1.649140
-5.931750	3.604060	1.650770
-5.931120	3.603690	1.652030
-5.931060	3.603670	1.653450
-5.931450	3.603920	1.654990
-5.930050	3.603090	1.656040
-5.930850	3.603590	1.657700
-5.930450	3.603360	1.659020
-5.930750	3.603560	1.660540
-5.930850	3.603630	1.662000
-5.932140	3.604430	1.663800
-5.931890	3.604300	1.665170
-5.930660	3.603560	1.666260
-5.931960	3.604370	1.668060
-5.947640	3.613910	1.673910
-5.951310	3.616620	1.573640
-5.945980	3.613400	1.573660
-5.942990	3.611600	1.574300
-5.939100	3.609250	1.574700
-5.936710	3.607810	1.575490
-5.933300	3.605760	1.576020
-5.932170	3.605090	1.577140
-5.931560	3.604730	1.578410
-5.932460	3.605290	1.580070
-5.931890	3.604960	1.581350
-5.930890	3.604360	1.582510
-5.931270	3.604620	1.584040
-5.932080	3.605120	1.585690
-5.931160	3.604580	1.586870
-5.930680	3.604300	1.588170
-5.929950	3.603870	1.589400
-5.931070	3.604570	1.591130
-5.931000	3.604540	1.592540
-5.931350	3.604770	1.594060
-5.930610	3.604330	1.595290
-5.931150	3.604670	1.596860
-5.931370	3.604820	1.598350
-5.930870	3.604530	1.599640
-5.930270	3.604180	1.600910
-5.930560	3.604370	1.602420
-5.931320	3.604850	1.604050
-5.930130	3.604140	1.605160
-5.931620	3.605060	1.606990
-5.930400	3.604330	1.608090
-5.930940	3.604670	1.609660
-5.931680	3.605130	1.611290
-5.930500	3.604430	1.612400
-5.930550	3.604470	1.613850
-5.930530	3.604470	1.615270
-5.930220	3.604300	1.616620
-5.930350	3.604390	1.618080
-5.930650	3.604590	1.619600
-5.930250	3.604360	1.620920
-5.930180	3.604340	1.622330
-5.929770	3.604110	1.623650
-5.930250	3.604410	1.625210
-5.930350	3.604490	1.626670
-5.930230	3.604430	1.628070
-5.929780	3.604170	1.629380
-5.930170	3.604420	1.630920
-5.929860	3.604250	1.632260
-5.930040	3.604370	1.633740
-5.930050	3.604400	1.635180
-5.929590	3.604130	1.636480
-5.929780	3.604260	1.637970
-5.929850	3.604320	1.639420
-5.930040	3.604450	1.640910
-5.930750	3.604890	1.642540
-5.929940	3.604420	1.643750
-5.930620	3.604840	1.645370
-5.929740	3.604320	1.646560
-5.930340	3.604710	1.648160
-5.930110	3.604580	1.649540
-5.929490	3.604220	1.650800
-5.929650	3.604330	1.652280
-5.930040	3.604590	1.653820
-5.929120	3.604040	1.655000
-5.929720	3.604420	1.656600
-5.929970	3.604590	1.658110
-5.929810	3.604510	1.659490
-5.929330	3.604230	1.660790
-5.929270	3.604210	1.662210
-5.930730	3.605110	1.664050
-5.930260	3.604840	1.665360
-5.930880	3.605230	1.666970
-5.931790	3.605800	1.668660
-5.948600	3.616520	1.573660
-5.944510	3.614040	1.574010
-5.941720	3.612360	1.574700
-5.938130	3.610200	1.575180
-5.934360	3.607920	1.575610
-5.931700	3.606320	1.576330
-5.930640	3.605690	1.577470
-5.930560	3.605660	1.578880
-5.930260	3.605490	1.580230
-5.930020	3.605360	1.581590
-5.930830	3.605860	1.583230
-5.929510	3.605080	1.584310
-5.930280	3.605560	1.585940
-5.931150	3.606110	1.587600
-5.930870	3.605950	1.588960
-5.930610	3.605810	1.590320
-5.929760	3.605310	1.591520
-5.929560	3.605200	1.592890
-5.929980	3.605470	1.594430
-5.930060	3.605540	1.595880
-5.930200	3.605630	1.597350
-5.929920	3.605480	1.598700
-5.929900	3.605490	1.600130
-5.928640	3.604730	1.601220
-5.931020	3.606190	1.603290
-5.929920	3.605540	1.604420
-5.928880	3.604920	1.605570
-5.930130	3.605700	1.607340
-5.929610	3.605400	1.608630
-5.929710	3.605470	1.610090
-5.929720	3.605500	1.611520
-5.929420	3.605330	1.612870
-5.928970	3.605070	1.614180
-5.929440	3.605370	1.615730
-5.929910	3.605670	1.617290
-5.929240	3.605280	1.618540
-5.929190	3.605260	1.619960
-5.929790	3.605640	1.621550
-5.929400	3.605420	1.622880
-5.929550	3.605530	1.624350
-5.929540	3.605540	1.625780
-5.928870	3.605150	1.627030
-5.928460	3.604910	1.628340
-5.929540	3.605580	1.630070
-5.928480	3.604950	1.631220
-5.928340	3.604880	1.632610
-5.928890	3.605230	1.634190
-5.929220	3.605440	1.635720
-5.928530	3.605040	1.636960
-5.929180	3.605450	1.638570
-5.928210	3.604880	1.639740
-5.929050	3.605400	1.641400
-5.929000	3.605390	1.642820
-5.928290	3.604970	1.644060
-5.929040	3.605440	1.645700
-5.929210	3.605560	1.647180
-5.928940	3.605420	1.648540
-5.929030	3.605490	1.650000
-5.929060	3.605510	1.651440
-5.928800	3.605370	1.652800
-5.928180	3.605010	1.654060
-5.929190	3.605640	1.655780
-5.927610	3.604700	1.656770
-5.929370	3.605780	1.658700
-5.928600	3.605330	1.659920
-5.929570	3.605930	1.661620
-5.928600	3.605360	1.662790
-5.928950	3.605600	1.665760
-5.928290	3.605210	1.667000
-5.932720	3.607920	1.669690
-5.952520	3.620460	1.573860
-5.947740	3.617570	1.574030
-5.944470	3.615590	1.574590
-5.940280	3.613060	1.574910
-5.936360	3.610690	1.575300
-5.933050	3.608700	1.575850
-5.930730	3.607300	1.576660
-5.929460	3.606540	1.577750
-5.928940	3.606240	1.579040
-5.929250	3.606440	1.580550
-5.929440	3.606580	1.582030
-5.928820	3.606210	1.583290
-5.929550	3.606670	1.584910
-5.928880	3.606280	1.586160
-5.929190	3.606480	1.587670
-5.929860	3.606900	1.589280
-5.928340	3.605990	1.590300
-5.928450	3.606080	1.591760
-5.929180	3.606540	1.593390
-5.929330	3.606640	1.594860
-5.928020	3.605860	1.595930
-5.928740	3.606310	1.597560
-5.928600	3.606240	1.598950
-5.928820	3.606390	1.600440
-5.929040	3.606540	1.601920
-5.928100	3.605980	1.603100
-5.929260	3.606700	1.604840
-5.928410	3.606200	1.606040
-5.928740	3.606420	1.607560
-5.928690	3.606400	1.608980
-5.928730	3.606440	1.610420
-5.928250	3.606160	1.611720
-5.928420	3.606280	1.613190
-5.928230	3.606180	1.614570
-5.928050	3.606090	1.615950
-5.928380	3.606300	1.617480
-5.927610	3.605850	1.618690
-5.928200	3.606220	1.620290
-5.927650	3.605900	1.621570
-5.928060	3.606170	1.623110
-5.927640	3.605920	1.624430
-5.928600	3.606520	1.626120
-5.928180	3.606280	1.627440
-5.927740	3.606030	1.628750
-5.927030	3.605610	1.629990
-5.927800	3.606100	1.631630
-5.926810	3.605510	1.632790
-5.927540	3.605970	1.634420
-5.926830	3.605550	1.635660
-5.928220	3.606410	1.637480
-5.927250	3.605840	1.638640
-5.928240	3.606450	1.640350
-5.928150	3.606410	1.641750
-5.928610	3.606710	1.643310
-5.929440	3.607230	1.644980
-5.928630	3.606750	1.646180
-5.928260	3.606540	1.647510
-5.927560	3.606130	1.648750
-5.927760	3.606260	1.650240
-5.927810	3.606310	1.651690
-5.927120	3.605910	1.652930
-5.928000	3.606470	1.654610
-5.927540	3.606200	1.655920
-5.927780	3.606370	1.657420
-5.928510	3.606830	1.659060
-5.927560	3.606260	1.660230
-5.928510	3.606860	1.661930
-5.927040	3.605980	1.662960
-5.927710	3.606400	1.664580
-5.928320	3.606790	1.666190
-5.928540	3.606940	1.667690
-5.933440	3.609940	1.670510
-5.952300	3.621940	1.574900
-5.948930	3.619910	1.575430
-5.946470	3.618420	1.576210
-5.941450	3.615390	1.576310
-5.934650	3.611260	1.575930
-5.930950	3.609030	1.576380
-5.929030	3.607880	1.577290
-5.928580	3.607620	1.578600
-5.928710	3.607710	1.580060
-5.928500	3.607600	1.581430
-5.928350	3.607530	1.582820
-5.928080	3.607370	1.584180
-5.928470	3.607630	1.585710
-5.927680	3.607160	1.586930
-5.928500	3.607680	1.588570
-5.928030	3.607400	1.589880
-5.928210	3.607530	1.591350
-5.927610	3.607180	1.592620
-5.927690	3.607240	1.594070
-5.928650	3.607840	1.595760
-5.928400	3.607710	1.597120
-5.928200	3.607600	1.598500
-5.928210	3.607620	1.599930
-5.928280	3.607680	1.601380
-5.928590	3.607880	1.602890
-5.926820	3.606820	1.603840
-5.927770	3.607410	1.605530
-5.927540	3.607290	1.606900
-5.927090	3.607030	1.608200
-5.927440	3.607260	1.609730
-5.927590	3.607360	1.611200
-5.927310	3.607210	1.612550
-5.926390	3.606660	1.613730
-5.926100	3.606500	1.615080
-5.927380	3.607300	1.616860
-5.926470	3.606750	1.618040
-5.926590	3.606850	1.619510
-5.927180	3.607220	1.621100
-5.926320	3.606710	1.622300
-5.926040	3.606550	1.623650
-5.925480	3.606230	1.624930
-5.924910	3.605900	1.626200
-5.925440	3.606240	1.627780
-5.926150	3.606680	1.629410
-5.925200	3.606120	1.630570
-5.925380	3.606250	1.632060
-5.925350	3.606240	1.633480
-5.924790	3.605920	1.634750
-5.925170	3.606180	1.637720
-5.926100	3.606760	1.639410
-5.926160	3.606810	1.640860
-5.925720	3.606560	1.642170
-5.925610	3.606500	1.643570
-5.925360	3.606370	1.644930
-5.926710	3.607210	1.646740
-5.925630	3.606570	1.647870
-5.927260	3.607570	1.649760
-5.927090	3.607480	1.651150
-5.927190	3.607560	1.652610
-5.927260	3.607620	1.654060
-5.927150	3.607570	1.655460
-5.926750	3.607340	1.656780
-5.926710	3.607330	1.658210
-5.926940	3.607480	1.659700
-5.927550	3.607870	1.661310
-5.926380	3.607170	1.662420
-5.926660	3.607360	1.663930
-5.926790	3.607450	1.665400
-5.927340	3.607800	1.667000
-5.928030	3.608230	1.668620
-5.953930	3.624600	1.578940
-5.941340	3.616950	1.577030
-5.933210	3.612020	1.576310
-5.928900	3.609420	1.576590
-5.927320	3.608470	1.577600
-5.927570	3.608640	1.579090
-5.926840	3.608210	1.580320
-5.926140	3.607800	1.581570
-5.926560	3.608070	1.583110
-5.927150	3.608450	1.584690
-5.926540	3.608090	1.585960
-5.925880	3.607710	1.587210
-5.927630	3.608790	1.589110
-5.926900	3.608350	1.590340
-5.926690	3.608240	1.591710
-5.927940	3.609010	1.593470
-5.927170	3.608550	1.594690
-5.926570	3.608200	1.595960
-5.926300	3.608050	1.597320
-5.926930	3.608450	1.598910
-5.926380	3.608120	1.600190
-5.927770	3.608990	1.602000
-5.927120	3.608610	1.603250
-5.926600	3.608310	1.604540
-5.926530	3.608280	1.605950
-5.926450	3.608250	1.607360
-5.925800	3.607870	1.608610
-5.926640	3.608390	1.610270
-5.924930	3.607370	1.611230
-5.925890	3.607960	1.612920
-5.926300	3.608230	1.614460
-5.925890	3.607990	1.615780
-5.924780	3.607340	1.616910
-5.923430	3.606530	1.617970
-5.923850	3.606800	1.619520
-5.923170	3.606400	1.620760
-5.922300	3.605890	1.621950
-5.920830	3.605010	1.622980
-5.919650	3.604310	1.624090
-5.917870	3.603230	1.625030
-5.916210	3.602240	1.626000
-5.915470	3.601800	1.627220
-5.916220	3.602280	1.628860
-5.915430	3.601810	1.630070
-5.916000	3.602170	1.631660
-5.916890	3.602730	1.633330
-5.918530	3.603740	1.635220
-5.920050	3.604680	1.637070
-5.920680	3.605080	1.638680
-5.922680	3.606310	1.640660
-5.922500	3.606220	1.642040
-5.924050	3.607180	1.643900
-5.925090	3.607830	1.645630
-5.925150	3.607880	1.647070
-5.925150	3.607890	1.648510
-5.925150	3.607910	1.649940
-5.925990	3.608440	1.651610
-5.925190	3.607960	1.652820
-5.926080	3.608520	1.654500
-5.926310	3.608680	1.656000
-5.925730	3.608340	1.657270
-5.926250	3.608670	1.658850
-5.925660	3.608330	1.660120
-5.925650	3.608330	1.661550
-5.925720	3.608390	1.663010
-5.926770	3.609040	1.664730
-5.926210	3.608720	1.666010
-5.926390	3.608840	1.667500
-5.926800	3.609110	1.669050
-5.947220	3.622190	1.578860
-5.932890	3.613480	1.576480
-5.927920	3.610470	1.576590
-5.926710	3.609750	1.577700
-5.926800	3.609820	1.579150
-5.926230	3.609480	1.580420
-5.927060	3.610010	1.582070
-5.925960	3.609350	1.583210
-5.926190	3.609510	1.584700
-5.925470	3.609080	1.585930
-5.925170	3.608910	1.587280
-5.924850	3.608730	1.588620
-5.925660	3.609250	1.590270
-5.925060	3.608900	1.591540
-5.925980	3.609470	1.593220
-5.926140	3.609580	1.594690
-5.925450	3.609180	1.595930
-5.925570	3.609260	1.597390
-5.925720	3.609370	1.598860
-5.925750	3.609410	1.600300
-5.925100	3.609020	1.601550
-5.925210	3.609100	1.603010
-5.925470	3.609280	1.604510
-5.925220	3.609140	1.605880
-5.924750	3.608870	1.607180
-5.925280	3.609210	1.608750
-5.925430	3.609310	1.610220
-5.924210	3.608590	1.611320
-5.924070	3.608520	1.612710
-5.923340	3.608090	1.613940
-5.922710	3.607720	1.615200
-5.920760	3.606550	1.616100
-5.917630	3.604650	1.616670
-5.913540	3.602180	1.616990
-5.909880	3.599970	1.617410
-5.906610	3.597990	1.617940
-5.903660	3.596210	1.618560
-5.900710	3.594420	1.619180
-5.899150	3.593490	1.620170
-5.895870	3.591510	1.620700
-5.894680	3.590800	1.621800
-5.894620	3.590780	1.623200
-5.894740	3.590870	1.624670
-5.894830	3.590940	1.626120
-5.896620	3.592040	1.628030
-5.899250	3.593660	1.630190
-5.900000	3.594130	1.631820
-5.903370	3.596200	1.634180
-5.907500	3.598730	1.636750
-5.910990	3.600870	1.639150
-5.915700	3.603750	1.641890
-5.919080	3.605830	1.644260
-5.921060	3.607050	1.646240
-5.922670	3.608040	1.648120
-5.923220	3.608390	1.649700
-5.923740	3.608730	1.651290
-5.924320	3.609090	1.652880
-5.924260	3.609070	1.654300
-5.924720	3.609360	1.655860
-5.923810	3.608830	1.657040
-5.924940	3.609530	1.658790
-5.923950	3.608950	1.659950
-5.924660	3.609390	1.661580
-5.924300	3.609190	1.662910
-5.924780	3.609490	1.664480
-5.924630	3.609420	1.665870
-5.924480	3.609340	1.667270
-5.924730	3.609510	1.668770
-5.956180	3.629250	1.581570
-5.930410	3.613570	1.576150
-5.927480	3.611800	1.576800
-5.925610	3.610680	1.577730
-5.925730	3.610760	1.579190
-5.924720	3.610160	1.580350
-5.924870	3.610270	1.581810
-5.925040	3.610390	1.583290
-5.923690	3.609580	1.584350
-5.925360	3.610610	1.586230
-5.924650	3.610200	1.587460
-5.924780	3.610290	1.588930
-5.925730	3.610880	1.590610
-5.925230	3.610590	1.591900
-5.924200	3.609980	1.593050
-5.923370	3.609490	1.594260
-5.923630	3.609660	1.595760
-5.925380	3.610750	1.597660
-5.923780	3.609780	1.598650
-5.924720	3.610370	1.600330
-5.924170	3.610050	1.601610
-5.924230	3.610100	1.603060
-5.924360	3.610200	1.604520
-5.924370	3.610220	1.605950
-5.923150	3.609490	1.607050
-5.923770	3.609880	1.608650
-5.922750	3.609280	1.609800
-5.922680	3.609250	1.611210
-5.919710	3.607460	1.611830
-5.915270	3.604770	1.612040
-5.910580	3.601920	1.612190
-5.904130	3.598010	1.611860
-5.899120	3.594970	1.611920
-5.895700	3.592900	1.612410
-5.890940	3.590020	1.612530
-5.888390	3.588480	1.613250
-5.886060	3.587080	1.614040
-5.885200	3.586570	1.615220
-5.883690	3.585660	1.616230
-5.883570	3.585600	1.617620
-5.882780	3.585140	1.618830
-5.882200	3.584800	1.620090
-5.881190	3.584200	1.621230
-5.882230	3.584850	1.622940
-5.881580	3.584470	1.624180
-5.882410	3.584990	1.625830
-5.883060	3.585400	1.627440
-5.884230	3.586120	1.629180
-5.886260	3.587380	1.631170
-5.887920	3.588410	1.633050
-5.893460	3.591800	1.636020
-5.899780	3.595660	1.639200
-5.907150	3.600160	1.642670
-5.914510	3.604670	1.646150
-5.916770	3.606060	1.648210
-5.920690	3.608460	1.650740
-5.921720	3.609100	1.652450
-5.922290	3.609470	1.654050
-5.922520	3.609620	1.655540
-5.922920	3.609880	1.657090
-5.922940	3.609910	1.658530
-5.922680	3.609770	1.659890
-5.924520	3.610900	1.661840
-5.923320	3.610180	1.662940
-5.924170	3.610720	1.664610
-5.923460	3.610300	1.665850
-5.923070	3.610080	1.667170
-5.923430	3.610310	1.668710
-5.937220	3.619350	1.577460
-5.927610	3.613510	1.576330
-5.925130	3.612010	1.577100
-5.924650	3.611740	1.578400
-5.923950	3.611320	1.579640
-5.923270	3.610920	1.580880
-5.924240	3.611530	1.582570
-5.923400	3.611030	1.583770
-5.924220	3.611550	1.585420
-5.923350	3.611030	1.586610
-5.923930	3.611400	1.588190
-5.922470	3.610530	1.589230
-5.923610	3.611230	1.590960
-5.923660	3.611280	1.592400
-5.923450	3.611170	1.593770
-5.924070	3.611560	1.595370
-5.924040	3.611560	1.596790
-5.923150	3.611030	1.597980
-5.923980	3.611550	1.599630
-5.922300	3.610550	1.600610
-5.922690	3.610800	1.602150
-5.923500	3.611300	1.603790
-5.922700	3.610830	1.605010
-5.921650	3.610210	1.606150
-5.922470	3.610720	1.607800
-5.919730	3.609070	1.608490
-5.915640	3.606590	1.608810
-5.908490	3.602250	1.608290
-5.902350	3.598520	1.608040
-5.896810	3.595160	1.607950
-5.890100	3.591080	1.607550
-5.887000	3.589210	1.608120
-5.884900	3.587940	1.608970
-5.883070	3.586840	1.609890
-5.881170	3.585700	1.610790
-5.880740	3.585460	1.612100
-5.879660	3.584810	1.613220
-5.878850	3.584330	1.614420
-5.878850	3.584350	1.615840
-5.878120	3.583910	1.617060
-5.877490	3.583550	1.618310
-5.877010	3.583270	1.619600
-5.876980	3.583270	1.621010
-5.876610	3.583050	1.622330
-5.876520	3.583020	1.623720
-5.876890	3.583260	1.625250
-5.876840	3.583240	1.626660
-5.877690	3.583770	1.628310
-5.877240	3.583520	1.629610
-5.879010	3.584610	1.631520
-5.881130	3.585920	1.633530
-5.882750	3.586920	1.635400
-5.887580	3.589880	1.638170
-5.895340	3.594630	1.641760
-5.903880	3.599850	1.645570
-5.911830	3.604710	1.649210
-5.920860	3.610240	1.654600
-5.920280	3.609900	1.655870
-5.920980	3.610350	1.657500
-5.921950	3.610950	1.659200
-5.922840	3.611510	1.660890
-5.921630	3.610780	1.661980
-5.922180	3.611140	1.663570
-5.922450	3.611320	1.665080
-5.922430	3.611320	1.666510
-5.921510	3.610770	1.667680
-5.936380	3.620440	1.577500
-5.926450	3.614400	1.576290
-5.924000	3.612920	1.577060
-5.923280	3.612500	1.578300
-5.922350	3.611940	1.579480
-5.922550	3.612080	1.580960
-5.923120	3.612440	1.582540
-5.921680	3.611580	1.583580
-5.923140	3.612490	1.585400
-5.922480	3.612100	1.586650
-5.922590	3.612180	1.588100
-5.922550	3.612170	1.589520
-5.922580	3.612210	1.590960
-5.923160	3.612570	1.592540
-5.921720	3.611710	1.593580
-5.921300	3.611470	1.594900
-5.922640	3.612300	1.596690
-5.922190	3.612040	1.597990
-5.921980	3.611930	1.599360
-5.921480	3.611640	1.600660
-5.921750	3.611820	1.602160
-5.921540	3.611700	1.603530
-5.919620	3.610550	1.604440
-5.918100	3.609640	1.605450
-5.913510	3.606850	1.605630
-5.905750	3.602140	1.604950
-5.898290	3.597600	1.604340
-5.892030	3.593800	1.604060
-5.887350	3.590960	1.604210
-5.883940	3.588900	1.604700
-5.881830	3.587630	1.605550
-5.880230	3.586660	1.606530
-5.879390	3.586170	1.607720
-5.878080	3.585390	1.608780
-5.877490	3.585040	1.610040
-5.876410	3.584400	1.611170
-5.875710	3.583990	1.612390
-5.875360	3.583790	1.613720
-5.874600	3.583340	1.614930
-5.873910	3.582930	1.616160
-5.873480	3.582680	1.617460
-5.872860	3.582320	1.618710
-5.873390	3.582660	1.620280
-5.873070	3.582480	1.621610
-5.873270	3.582620	1.623090
-5.872740	3.582310	1.624370
-5.873220	3.582620	1.625920
-5.873460	3.582780	1.627410
-5.873920	3.583080	1.628960
-5.874670	3.583550	1.630590
-5.875010	3.583770	1.632110
-5.876240	3.584530	1.633870
-5.877020	3.585020	1.635510
-5.879440	3.586520	1.637610
-5.883370	3.588930	1.640120
-5.890950	3.593570	1.643660
-5.900470	3.599390	1.647750
-5.910710	3.605640	1.652030
-5.916380	3.609120	1.655050
-5.918580	3.610470	1.657100
-5.921460	3.612240	1.659340
-5.921460	3.612260	1.660770
-5.920660	3.611790	1.661980
-5.921240	3.612160	1.663580
-5.922170	3.612740	1.665270
-5.921680	3.612460	1.666570
-5.921850	3.612580	1.668060
-5.937160	3.622500	1.577910
-5.926240	3.615860	1.576440
-5.923420	3.614150	1.577120
-5.922870	3.613830	1.578400
-5.923070	3.613970	1.579880
-5.922240	3.613470	1.581080
-5.921430	3.612990	1.582290
-5.921880	3.613280	1.583840
-5.921530	3.613080	1.585170
-5.920680	3.612580	1.586370
-5.921850	3.613310	1.588120
-5.921630	3.613190	1.589480
-5.921460	3.613100	1.590860
-5.921910	3.613390	1.592410
-5.921850	3.613370	1.593830
-5.920900	3.612800	1.595000
-5.921160	3.612970	1.596500
-5.921220	3.613030	1.597940
-5.920570	3.612640	1.599200
-5.921280	3.613090	1.600820
-5.919310	3.611910	1.601720
-5.918110	3.611190	1.602820
-5.914440	3.608960	1.603250
-5.905870	3.603750	1.602360
-5.898580	3.599320	1.601800
-5.891580	3.595060	1.601320
-5.887240	3.592430	1.601560
-5.883050	3.589890	1.601840
-5.881100	3.588720	1.602730
-5.879200	3.587570	1.603630
-5.878170	3.586960	1.604770
-5.876710	3.586080	1.605790
-5.875880	3.585590	1.606980
-5.874810	3.584950	1.608110
-5.874350	3.584690	1.609400
-5.873520	3.584190	1.610590
-5.872860	3.583810	1.611830
-5.872030	3.583310	1.613020
-5.871530	3.583020	1.614300
-5.870730	3.582550	1.615500
-5.870980	3.582710	1.616990
-5.870360	3.582350	1.618240
-5.870000	3.582150	1.619560
-5.869820	3.582050	1.620930
-5.870220	3.582310	1.622460
-5.869830	3.582090	1.623770
-5.869870	3.582120	1.625200
-5.870240	3.582370	1.626730
-5.870390	3.582470	1.628190
-5.870580	3.582600	1.629660
-5.871080	3.582920	1.631220
-5.871590	3.583250	1.632780
-5.872920	3.584070	1.634570
-5.873480	3.584430	1.636150
-5.875270	3.585540	1.638070
-5.877300	3.586790	1.640060
-5.881610	3.589430	1.642690
-5.888280	3.593520	1.645980
-5.900700	3.601110	1.650880
-5.910190	3.606920	1.654960
-5.917440	3.611350	1.658420
-5.919270	3.612480	1.660370
-5.919160	3.612430	1.661770
-5.920150	3.613050	1.663480
-5.919530	3.612690	1.664750
-5.920520	3.613300	1.666460
-5.920820	3.613500	1.667980
-5.930210	3.619810	1.576880
-5.923740	3.615880	1.576590
-5.921250	3.614380	1.577350
-5.920480	3.613920	1.578570
-5.920620	3.614020	1.580040
-5.920630	3.614040	1.581460
-5.921240	3.614430	1.583050
-5.921690	3.614720	1.584600
-5.920870	3.614230	1.585810
-5.919720	3.613550	1.586930
-5.920810	3.614230	1.588650
-5.921820	3.614860	1.590350
-5.920220	3.613900	1.591350
-5.920250	3.613930	1.592780
-5.919980	3.613780	1.594130
-5.919970	3.613790	1.595560
-5.920370	3.614050	1.597090
-5.919890	3.613770	1.598390
-5.919460	3.613530	1.599710
-5.917540	3.612370	1.600620
-5.913900	3.610160	1.601060
-5.904500	3.604440	1.599940
-5.895410	3.598910	1.598900
-5.888810	3.594900	1.598530
-5.884650	3.592370	1.598820
-5.881550	3.590490	1.599400
-5.879610	3.589320	1.600290
-5.878590	3.588720	1.601430
-5.876810	3.587650	1.602370
-5.875120	3.586630	1.603330
-5.874480	3.586260	1.604570
-5.872830	3.585260	1.605540
-5.872570	3.585120	1.606890
-5.871610	3.584550	1.608050
-5.870670	3.583990	1.609210
-5.870020	3.583610	1.610450
-5.869460	3.583280	1.611720
-5.869260	3.583170	1.613080
-5.868690	3.582840	1.614340
-5.868040	3.582460	1.615580
-5.868060	3.582480	1.617010
-5.868040	3.582490	1.618420
-5.867230	3.582010	1.619620
-5.867600	3.582250	1.621140
-5.866900	3.581840	1.622360
-5.867110	3.581980	1.623840
-5.867560	3.582270	1.625390
-5.867520	3.582260	1.626800
-5.867430	3.582220	1.628190
-5.868060	3.582620	1.629780
-5.868370	3.582830	1.631290
-5.868910	3.583170	1.632860
-5.869360	3.583460	1.634410
-5.869750	3.583710	1.635930
-5.871060	3.584520	1.637720
-5.872550	3.585450	1.639560
-5.874170	3.586450	1.641430
-5.878760	3.589270	1.644140
-5.883350	3.592090	1.646850
-5.895890	3.599760	1.651780
-5.908270	3.607330	1.656680
-5.914960	3.611430	1.659990
-5.917780	3.613160	1.662220
-5.919080	3.613970	1.664020
-5.919340	3.614150	1.665530
-5.920540	3.614890	1.667300
-5.919460	3.614250	1.668430
-5.927100	3.619490	1.576640
-5.922760	3.616860	1.576910
-5.920470	3.615470	1.577730
-5.920010	3.615210	1.579040
-5.920490	3.615520	1.580590
-5.920270	3.615400	1.581960
-5.920800	3.615740	1.583520
-5.919220	3.614790	1.584530
-5.918850	3.614580	1.585860
-5.919150	3.614780	1.587360
-5.919510	3.615020	1.590310
-5.919490	3.615030	1.591730
-5.919400	3.614990	1.593140
-5.918990	3.614750	1.594460
-5.919270	3.614940	1.595960
-5.918340	3.614390	1.597140
-5.916720	3.613410	1.598130
-5.914270	3.611930	1.598900
-5.906260	3.607050	1.598150
-5.896730	3.601250	1.597000
-5.889260	3.596710	1.596400
-5.884640	3.593900	1.596570
-5.881270	3.591860	1.597080
-5.879080	3.590540	1.597900
-5.877390	3.589520	1.598860
-5.875530	3.588400	1.599780
-5.874560	3.587820	1.600930
-5.873320	3.587080	1.602010
-5.872060	3.586330	1.603090
-5.871040	3.585720	1.604230
-5.870490	3.585400	1.605500
-5.869510	3.584810	1.606650
-5.868470	3.584200	1.607790
-5.868120	3.584000	1.609110
-5.867790	3.583810	1.610440
-5.867130	3.583420	1.611680
-5.866410	3.583000	1.612900
-5.866020	3.582770	1.614210
-5.865300	3.582350	1.615430
-5.865070	3.582220	1.616780
-5.864780	3.582060	1.618120
-5.864820	3.582100	1.619550
-5.864520	3.581930	1.620880
-5.864220	3.581770	1.622220
-5.864610	3.582020	1.623750
-5.864790	3.582140	1.625220
-5.864740	3.582120	1.626620
-5.864960	3.582280	1.628100
-5.865370	3.582540	1.629640
-5.865940	3.582910	1.631220
-5.865860	3.582870	1.632610
-5.866750	3.583430	1.634290
-5.867180	3.583710	1.635830
-5.868270	3.584390	1.637550
-5.869120	3.584920	1.639210
-5.869970	3.585450	1.640870
-5.871560	3.586440	1.642740
-5.874340	3.588150	1.644940
-5.879640	3.591400	1.647850
-5.892390	3.599210	1.652850
-5.907700	3.608570	1.658570
-5.913390	3.612060	1.661600
-5.916810	3.614160	1.664000
-5.916970	3.614270	1.665480
-5.917910	3.614870	1.667180
-5.913260	3.612040	1.667300
-5.928050	3.621670	1.577080
-5.921690	3.617800	1.576810
-5.919920	3.616740	1.577770
-5.919640	3.616580	1.579120
-5.918210	3.615720	1.580160
-5.919100	3.616280	1.581830
-5.919190	3.616350	1.583280
-5.918790	3.616120	1.584600
-5.918260	3.615810	1.585890
-5.918350	3.615880	1.587340
-5.917800	3.615570	1.590040
-5.917810	3.615600	1.591480
-5.917460	3.615400	1.592810
-5.917530	3.615460	1.594260
-5.917220	3.615280	1.595600
-5.916210	3.614680	1.596760
-5.911790	3.612000	1.596990
-5.902640	3.606420	1.595940
-5.894140	3.601250	1.595070
-5.887020	3.596910	1.594560
-5.882240	3.594010	1.594690
-5.879910	3.592600	1.595480
-5.877400	3.591080	1.596210
-5.875990	3.590230	1.597250
-5.874370	3.589260	1.598230
-5.872930	3.588390	1.599250
-5.871270	3.587400	1.600220
-5.870620	3.587020	1.601460
-5.869890	3.586580	1.602680
-5.868840	3.585960	1.603810
-5.868010	3.585470	1.605000
-5.867220	3.585000	1.606210
-5.866190	3.584390	1.607340
-5.865640	3.584060	1.608610
-5.865250	3.583840	1.609920
-5.864710	3.583520	1.611190
-5.864060	3.583140	1.612430
-5.864000	3.583120	1.613830
-5.863410	3.582780	1.615090
-5.863270	3.582700	1.616460
-5.862630	3.582330	1.617710
-5.862720	3.582400	1.619150
-5.862480	3.582260	1.620500
-5.862360	3.582210	1.621880
-5.862510	3.582320	1.623340
-5.862260	3.582180	1.624690
-5.862600	3.582400	1.626200
-5.862720	3.582490	1.627660
-5.862850	3.582580	1.629110
-5.862870	3.582610	1.630530
-5.863580	3.583060	1.632150
-5.864100	3.583390	1.633720
-5.864680	3.583760	1.635300
-5.864860	3.583890	1.636770
-5.866470	3.584880	1.638640
-5.867350	3.585440	1.640310
-5.867700	3.585670	1.641830
-5.868810	3.586360	1.643560
-5.871310	3.587900	1.645680
-5.875340	3.590380	1.648230
-5.884610	3.596060	1.652260
-5.900230	3.605610	1.658080
-5.911120	3.612280	1.662570
-5.916330	3.615480	1.665470
-5.916960	3.615880	1.667080
-5.914930	3.614650	1.667950
-5.927200	3.622770	1.577080
-5.920260	3.618550	1.576660
-5.919180	3.617900	1.577800
-5.918390	3.617440	1.579020
-5.916950	3.616570	1.580060
-5.916900	3.616550	1.581470
-5.917520	3.616950	1.583060
-5.917170	3.616750	1.584400
-5.918500	3.617580	1.586180
-5.917160	3.616770	1.587250
-5.917810	3.617190	1.588850
-5.917970	3.617300	1.590320
-5.916980	3.616710	1.591480
-5.916740	3.616580	1.592850
-5.916680	3.616560	1.594260
-5.907790	3.611150	1.594710
-5.897690	3.605000	1.593410
-5.888590	3.599450	1.592370
-5.883520	3.596360	1.592420
-5.880410	3.594480	1.593000
-5.878110	3.593090	1.593790
-5.875720	3.591650	1.594560
-5.874060	3.590650	1.595530
-5.873140	3.590100	1.596700
-5.871710	3.589240	1.597730
-5.870420	3.588470	1.598790
-5.868850	3.587520	1.599780
-5.868290	3.587200	1.601050
-5.867530	3.586750	1.602260
-5.866200	3.585950	1.603310
-5.865430	3.585490	1.604520
-5.864510	3.584940	1.605690
-5.864060	3.584680	1.606980
-5.863560	3.584400	1.608260
-5.862780	3.583930	1.609460
-5.862480	3.583760	1.610800
-5.862000	3.583480	1.612090
-5.861710	3.583320	1.613420
-5.861130	3.582980	1.614680
-5.860950	3.582890	1.616050
-5.860690	3.582750	1.617400
-5.860360	3.582560	1.618730
-5.860430	3.582610	1.620160
-5.860130	3.582450	1.621500
-5.860210	3.582510	1.622940
-5.859990	3.582390	1.624300
-5.859900	3.582350	1.625690
-5.860210	3.582550	1.627200
-5.860390	3.582680	1.628670
-5.860650	3.582850	1.630160
-5.860780	3.582950	1.631610
-5.861120	3.583170	1.633130
-5.861820	3.583610	1.634740
-5.862840	3.584250	1.636440
-5.863390	3.584600	1.638020
-5.863960	3.584960	1.639600
-5.864820	3.585500	1.641260
-5.866280	3.586400	1.643090
-5.867480	3.587150	1.644850
-5.869390	3.588340	1.646800
-5.872630	3.590320	1.649130
-5.879720	3.594670	1.652550
-5.896690	3.605060	1.658750
-5.910980	3.613810	1.664200
-5.914800	3.616150	1.666710
-5.918220	3.618260	1.669110
-5.941340	3.633030	1.580270
-5.923180	3.621940	1.576860
-5.918280	3.618960	1.576990
-5.917350	3.618400	1.578170
-5.918630	3.619200	1.579930
-5.916550	3.617950	1.580810
-5.917130	3.618320	1.582390
-5.917710	3.618690	1.583970
-5.916070	3.617700	1.584960
-5.916130	3.617750	1.586400
-5.916190	3.617800	1.587850
-5.915760	3.617560	1.589160
-5.916750	3.618170	1.590850
-5.915090	3.617170	1.591840
-5.914230	3.616660	1.593030
-5.910520	3.614410	1.593460
-5.900980	3.608600	1.592310
-5.891760	3.602970	1.591250
-5.884230	3.598390	1.590640
-5.880060	3.595850	1.590930
-5.877690	3.594420	1.591710
-5.875810	3.593280	1.592620
-5.873380	3.591810	1.593380
-5.872300	3.591170	1.594500
-5.870710	3.590210	1.595480
-5.869480	3.589470	1.596570
-5.868380	3.588810	1.597690
-5.867180	3.588090	1.598780
-5.866200	3.587510	1.599930
-5.865450	3.587070	1.601140
-5.864150	3.586290	1.602200
-5.863560	3.585940	1.603460
-5.863020	3.585630	1.604730
-5.862090	3.585080	1.605890
-5.861510	3.584730	1.607150
-5.860900	3.584380	1.608400
-5.860400	3.584090	1.609680
-5.859960	3.583830	1.610970
-5.859360	3.583480	1.612220
-5.859280	3.583440	1.613620
-5.858880	3.583220	1.614930
-5.858860	3.583220	1.616340
-5.858300	3.582890	1.617600
-5.858240	3.582870	1.619000
-5.858230	3.582880	1.620420
-5.858090	3.582810	1.621800
-5.858210	3.582900	1.623250
-5.858050	3.582820	1.624620
-5.857760	3.582650	1.625960
-5.858280	3.582980	1.627520
-5.858640	3.583220	1.629040
-5.858550	3.583180	1.630430
-5.858990	3.583470	1.631970
-5.859280	3.583650	1.633470
-5.859900	3.584050	1.635070
-5.860300	3.584310	1.636600
-5.861020	3.584770	1.638230
-5.862210	3.585510	1.639980
-5.862720	3.585840	1.641540
-5.864180	3.586740	1.643370
-5.864840	3.587160	1.644980
-5.866640	3.588270	1.646910
-5.868760	3.589590	1.648930
-5.872710	3.592020	1.651470
-5.884050	3.598970	1.656080
-5.902690	3.610380	1.662760
-5.915330	3.618120	1.667750
-5.957610	3.644620	1.584730
-5.923010	3.623470	1.576960
-5.917800	3.620300	1.577000
-5.916060	3.619260	1.577960
-5.915270	3.618790	1.579180
-5.915280	3.618810	1.580610
-5.915020	3.618670	1.581960
-5.916490	3.619580	1.583780
-5.914410	3.618320	1.584650
-5.915810	3.619190	1.586450
-5.915560	3.619060	1.587810
-5.915620	3.619110	1.589250
-5.914220	3.618270	1.590300
-5.913730	3.617980	1.591590
-5.910100	3.615780	1.592040
-5.900090	3.609670	1.590770
-5.889910	3.603460	1.589450
-5.883500	3.599550	1.589140
-5.879240	3.596960	1.589410
-5.876690	3.595420	1.590140
-5.874600	3.594160	1.590990
-5.872800	3.593070	1.591930
-5.871350	3.592190	1.592950
-5.869880	3.591310	1.593970
-5.868800	3.590670	1.595100
-5.867450	3.589860	1.596150
-5.866050	3.589010	1.597180
-5.864990	3.588380	1.598310
-5.864280	3.587960	1.599530
-5.863200	3.587310	1.600650
-5.862250	3.586750	1.601810
-5.861510	3.586310	1.603020
-5.860760	3.585870	1.604230
-5.860360	3.585640	1.605540
-5.859550	3.585160	1.606740
-5.858910	3.584780	1.607980
-5.858130	3.584320	1.609180
-5.858290	3.584430	1.610640
-5.857510	3.583970	1.611840
-5.857320	3.583870	1.613210
-5.856920	3.583640	1.614520
-5.856720	3.583530	1.615880
-5.856440	3.583380	1.617220
-5.856460	3.583400	1.618640
-5.855970	3.583120	1.619920
-5.855860	3.583070	1.621310
-5.855930	3.583120	1.622750
-5.855900	3.583120	1.624160
-5.855920	3.583150	1.625580
-5.856060	3.583250	1.627040
-5.856650	3.583620	1.628620
-5.856490	3.583540	1.629990
-5.857160	3.583960	1.631600
-5.856880	3.583810	1.632940
-5.857460	3.584180	1.634520
-5.857830	3.584420	1.636040
-5.858720	3.584980	1.637710
-5.859400	3.585410	1.639320
-5.860200	3.585920	1.640960
-5.861000	3.586420	1.642610
-5.861680	3.586850	1.644220
-5.863540	3.588000	1.646160
-5.864820	3.588800	1.647950
-5.866410	3.589790	1.649810
-5.870900	3.592550	1.652500
-5.880240	3.598280	1.656560
-5.904990	3.613440	1.664960
-5.944250	3.638100	1.581490
-5.921340	3.624100	1.576820
-5.916420	3.621100	1.576940
-5.915480	3.620540	1.578110
-5.915160	3.620360	1.579450
-5.914220	3.619800	1.580630
-5.913740	3.619520	1.581920
-5.913600	3.619450	1.583310
-5.913310	3.619290	1.584660
-5.915690	3.620760	1.586730
-5.914340	3.619950	1.587790
-5.913280	3.619310	1.588930
-5.913590	3.619520	1.590440
-5.908440	3.616390	1.590480
-5.900070	3.611280	1.589650
-5.891410	3.605990	1.588740
-5.882760	3.600710	1.587830
-5.879200	3.598550	1.588290
-5.875520	3.596310	1.588710
-5.873500	3.595100	1.589580
-5.872230	3.594330	1.590660
-5.870310	3.593170	1.591550
-5.869010	3.592390	1.592620
-5.867780	3.591650	1.593700
-5.866040	3.590600	1.594650
-5.865020	3.590000	1.595790
-5.863880	3.589310	1.596890
-5.862750	3.588630	1.598000
-5.861880	3.588120	1.599180
-5.861270	3.587760	1.600430
-5.860390	3.587240	1.601610
-5.859290	3.586580	1.602720
-5.858810	3.586300	1.604010
-5.858180	3.585930	1.605250
-5.857690	3.585650	1.606540
-5.857000	3.585240	1.607760
-5.856250	3.584790	1.608970
-5.856040	3.584680	1.610330
-5.855600	3.584430	1.611630
-5.855360	3.584300	1.612980
-5.855230	3.584230	1.614360
-5.854740	3.583940	1.615640
-5.854480	3.583800	1.616990
-5.854510	3.583830	1.618410
-5.854120	3.583610	1.619720
-5.853750	3.583400	1.621040
-5.854320	3.583760	1.622610
-5.854140	3.583660	1.623980
-5.854130	3.583680	1.625390
-5.854270	3.583770	1.626850
-5.854360	3.583850	1.628290
-5.854810	3.584140	1.629840
-5.854940	3.584230	1.631290
-5.855240	3.584430	1.632790
-5.855730	3.584750	1.634350
-5.855890	3.584860	1.635810
-5.856740	3.585400	1.637470
-5.857530	3.585890	1.639110
-5.858290	3.586370	1.640740
-5.858990	3.586820	1.642360
-5.859960	3.587420	1.644050
-5.860960	3.588050	1.645750
-5.862300	3.588890	1.647550
-5.864070	3.589980	1.649470
-5.865260	3.590730	1.651230
-5.870360	3.593870	1.654090
-5.889390	3.605530	1.660880
-5.930430	3.631310	1.578500
-5.918560	3.624060	1.576770
-5.915150	3.621990	1.577290
-5.914290	3.621480	1.578480
-5.913210	3.620830	1.579620
-5.913630	3.621110	1.581160
-5.913250	3.620890	1.582490
-5.914240	3.621510	1.584180
-5.912310	3.620340	1.585090
-5.913230	3.620920	1.586760
-5.912410	3.620430	1.587970
-5.911180	3.619700	1.589070
-5.905350	3.616140	1.588920
-5.894590	3.609570	1.587450
-5.884700	3.603530	1.586210
-5.879650	3.600450	1.586270
-5.876830	3.598750	1.586930
-5.873840	3.596930	1.587540
-5.872210	3.595940	1.588510
-5.870490	3.594900	1.589470
-5.868700	3.593830	1.590400
-5.867350	3.593010	1.591450
-5.865930	3.592160	1.592480
-5.865040	3.591630	1.593660
-5.863520	3.590720	1.594660
-5.862310	3.589990	1.595750
-5.861260	3.589360	1.596880
-5.860470	3.588890	1.598080
-5.859940	3.588580	1.599350
-5.858650	3.587800	1.600410
-5.857920	3.587380	1.601630
-5.857220	3.586960	1.602860
-5.856700	3.586660	1.604130
-5.855990	3.586240	1.605350
-5.855380	3.585880	1.606600
-5.854770	3.585520	1.607850
-5.854610	3.585440	1.609220
-5.854500	3.585390	1.610610
-5.853840	3.584990	1.611840
-5.853570	3.584850	1.613180
-5.853250	3.584660	1.614510
-5.853030	3.584540	1.615870
-5.852560	3.584270	1.617150
-5.852460	3.584230	1.618540
-5.852150	3.584060	1.619880
-5.852190	3.584090	1.621300
-5.852230	3.584130	1.622730
-5.852210	3.584140	1.624140
-5.852240	3.584170	1.625570
-5.852470	3.584320	1.627050
-5.852570	3.584400	1.628490
-5.852850	3.584590	1.629990
-5.853120	3.584760	1.631480
-5.853380	3.584940	1.632970
-5.853900	3.585270	1.634540
-5.854120	3.585420	1.636020
-5.854890	3.585910	1.637650
-5.855080	3.586040	1.639120
-5.856040	3.586640	1.640810
-5.856880	3.587170	1.642470
-5.857990	3.587870	1.644200
-5.858850	3.588410	1.645860
-5.859910	3.589070	1.647580
-5.861550	3.590090	1.649460
-5.864010	3.591610	1.651580
-5.866460	3.593130	1.653690
-5.880730	3.601880	1.659140
-5.923500	3.628650	1.577400
-5.915530	3.623790	1.576700
-5.913440	3.622530	1.577570
-5.912830	3.622160	1.578830
-5.912290	3.621850	1.580110
-5.912460	3.621970	1.581590
-5.911860	3.621620	1.582850
-5.912110	3.621780	1.584340
-5.912500	3.622040	1.585870
-5.911980	3.621730	1.587160
-5.910470	3.620820	1.588180
-5.904480	3.617170	1.588000
-5.890760	3.608790	1.585730
-5.883040	3.604070	1.585070
-5.878590	3.601360	1.585290
-5.875420	3.599430	1.585850
-5.873350	3.598180	1.586710
-5.871000	3.596760	1.587500
-5.869390	3.595790	1.588480
-5.867590	3.594700	1.589410
-5.865990	3.593730	1.590400
-5.864890	3.593070	1.591520
-5.863570	3.592280	1.592580
-5.862750	3.591790	1.593770
-5.861130	3.590820	1.594750
-5.860190	3.590250	1.595910
-5.859230	3.589690	1.597070
-5.858440	3.589210	1.598270
-5.857960	3.588930	1.599560
-5.856770	3.588220	1.600650
-5.856020	3.587780	1.601860
-5.855290	3.587340	1.603070
-5.854970	3.587160	1.604400
-5.854270	3.586750	1.605620
-5.853480	3.586280	1.606820
-5.853170	3.586110	1.608150
-5.852720	3.585840	1.609440
-5.852100	3.585480	1.610680
-5.851860	3.585350	1.612030
-5.851540	3.585170	1.613360
-5.851190	3.584970	1.614680
-5.850620	3.584630	1.615940
-5.850830	3.584780	1.617420
-5.850750	3.584740	1.618810
-5.850540	3.584630	1.620170
-5.850710	3.584750	1.621640
-5.850610	3.584700	1.623030
-5.850430	3.584610	1.624390
-5.850640	3.584750	1.625870
-5.850880	3.584910	1.627360
-5.850790	3.584870	1.628750
-5.850950	3.584980	1.630210
-5.851510	3.585340	1.631780
-5.851500	3.585350	1.633200
-5.852090	3.585730	1.634780
-5.852520	3.586010	1.636320
-5.852930	3.586270	1.637850
-5.853170	3.586440	1.639330
-5.854270	3.587130	1.641060
-5.855090	3.587640	1.642710
-5.855840	3.588120	1.644340
-5.856860	3.588750	1.646040
-5.858080	3.589520	1.647810
-5.861170	3.591440	1.651520
-5.863910	3.593130	1.653710
-5.874650	3.599730	1.658170
-5.923770	3.630420	1.577660
-5.915130	3.625140	1.576790
-5.912590	3.623600	1.577540
-5.912290	3.623430	1.578890
-5.912090	3.623320	1.580260
-5.910540	3.622390	1.581270
-5.910480	3.622370	1.582680
-5.911480	3.622990	1.584370
-5.911580	3.623070	1.585830
-5.909260	3.621660	1.586630
-5.904610	3.618830	1.586810
-5.893160	3.611830	1.585150
-5.883710	3.606050	1.584030
-5.878280	3.602740	1.583990
-5.875120	3.600820	1.584560
-5.872610	3.599300	1.585300
-5.870490	3.598010	1.586150
-5.868990	3.597110	1.587160
-5.867100	3.595970	1.588070
-5.865490	3.595000	1.589050
-5.864010	3.594100	1.590060
-5.863200	3.593620	1.591260
-5.861330	3.592490	1.592170
-5.860590	3.592060	1.593390
-5.859760	3.591560	1.594580
-5.858840	3.591010	1.595740
-5.857380	3.590130	1.596760
-5.856760	3.589770	1.598010
-5.855980	3.589300	1.599210
-5.854960	3.588690	1.600350
-5.854470	3.588410	1.601630
-5.853870	3.588050	1.602880
-5.853140	3.587620	1.604090
-5.852520	3.587260	1.605340
-5.852170	3.587060	1.606660
-5.851520	3.586670	1.607900
-5.851150	3.586470	1.609220
-5.850560	3.586120	1.610470
-5.850490	3.586090	1.611870
-5.850030	3.585820	1.613160
-5.849900	3.585760	1.614540
-5.849570	3.585570	1.615860
-5.849120	3.585310	1.617160
-5.849350	3.585470	1.618640
-5.848870	3.585180	1.619920
-5.848610	3.585040	1.621260
-5.848740	3.585140	1.622710
-5.848820	3.585200	1.624150
-5.849180	3.585440	1.625670
-5.849010	3.585340	1.627040
-5.849160	3.585460	1.628500
-5.849460	3.585650	1.630000
-5.849700	3.585820	1.631480
-5.850150	3.586110	1.633020
-5.850100	3.586090	1.634430
-5.850480	3.586340	1.635950
-5.851080	3.586720	1.637540
-5.851740	3.587140	1.639140
-5.852400	3.587560	1.640750
-5.852990	3.587940	1.642330
-5.853900	3.588510	1.644010
-5.855010	3.589210	1.645740
-5.855990	3.589820	1.647440
-5.857050	3.590480	1.649150
-5.858790	3.591570	1.651070
-5.860930	3.592890	1.653090
-5.921900	3.630920	1.577600
-5.914180	3.626200	1.576970
-5.911210	3.624390	1.577610
-5.911530	3.624600	1.579120
-5.909780	3.623550	1.580080
-5.910040	3.623730	1.581580
-5.910010	3.623720	1.582990
-5.909790	3.623600	1.584360
-5.909350	3.623340	1.585670
-5.903200	3.619590	1.585440
-5.893560	3.613690	1.584270
-5.883410	3.607490	1.582970
-5.878010	3.604200	1.582930
-5.874830	3.602260	1.583490
-5.872200	3.600660	1.584200
-5.870080	3.599380	1.585050
-5.868360	3.598340	1.586000
-5.866530	3.597230	1.586920
-5.864790	3.596180	1.587870
-5.863480	3.595390	1.588930
-5.862020	3.594510	1.589950
-5.860810	3.593790	1.591040
-5.859630	3.593080	1.592140
-5.858560	3.592440	1.593260
-5.857580	3.591850	1.594410
-5.856480	3.591190	1.595530
-5.855610	3.590670	1.596700
-5.854960	3.590290	1.597940
-5.853880	3.589640	1.599070
-5.853640	3.589510	1.600420
-5.852840	3.589040	1.601620
-5.852020	3.588540	1.602810
-5.851470	3.588220	1.604070
-5.850990	3.587940	1.605360
-5.850180	3.587470	1.606550
-5.849950	3.587340	1.607910
-5.849480	3.587060	1.609190
-5.848900	3.586720	1.610450
-5.848570	3.586530	1.611780
-5.848490	3.586500	1.613170
-5.848210	3.586340	1.614510
-5.848040	3.586260	1.615880
-5.847770	3.586110	1.617220
-5.847530	3.585970	1.618570
-5.847120	3.585740	1.619870
-5.847100	3.585740	1.621280
-5.847260	3.585860	1.622740
-5.847100	3.585770	1.624110
-5.847380	3.585960	1.625610
-5.847710	3.586170	1.627110
-5.847570	3.586100	1.628490
-5.847630	3.586150	1.629930
-5.848010	3.586400	1.631450
-5.848450	3.586690	1.632990
-5.848720	3.586870	1.634490
-5.848820	3.586950	1.635930
-5.849130	3.587150	1.637440
-5.850040	3.587720	1.639110
-5.851020	3.588340	1.640800
-5.851370	3.588570	1.642320
-5.852100	3.589030	1.643950
-5.853060	3.589630	1.645630
-5.854140	3.590310	1.647360
-5.855290	3.591030	1.649100
-5.856930	3.592050	1.650980
-5.858410	3.592980	1.652820
-5.861010	3.594590	1.654980
-5.868930	3.599460	1.658640
-5.922200	3.632740	1.577750
-5.913020	3.627130	1.576730
-5.910330	3.625490	1.577440
-5.909510	3.625010	1.578650
-5.908970	3.624690	1.579930
-5.909060	3.624760	1.581380
-5.907220	3.623640	1.582310
-5.908000	3.624140	1.583950
-5.906110	3.623000	1.584860
-5.897200	3.617550	1.583900
-5.885760	3.610550	1.582240
-5.878710	3.606240	1.581770
-5.874930	3.603940	1.582170
-5.872280	3.602320	1.582870
-5.869940	3.600910	1.583660
-5.868050	3.599760	1.584560
-5.866040	3.598540	1.585440
-5.864460	3.597590	1.586420
-5.863220	3.596840	1.587500
-5.861620	3.595880	1.588490
-5.860380	3.595130	1.589570
-5.858830	3.594190	1.590560
-5.857940	3.593660	1.591740
-5.856560	3.592830	1.592780
-5.855920	3.592450	1.594020
-5.854980	3.591890	1.595180
-5.854050	3.591340	1.596340
-5.853150	3.590800	1.597510
-5.852420	3.590370	1.598730
-5.851940	3.590090	1.600020
-5.851050	3.589560	1.601190
-5.850720	3.589370	1.602520
-5.850070	3.588990	1.603750
-5.849290	3.588530	1.604960
-5.848770	3.588220	1.606230
-5.848170	3.587870	1.607480
-5.847930	3.587730	1.608830
-5.847470	3.587470	1.610120
-5.847250	3.587350	1.611470
-5.846840	3.587110	1.612770
-5.846480	3.586910	1.614090
-5.846600	3.587000	1.615540
-5.846200	3.586760	1.616840
-5.846090	3.586710	1.618230
-5.846080	3.586720	1.619640
-5.845750	3.586540	1.620970
-5.845710	3.586520	1.622370
-5.845690	3.586530	1.623780
-5.845770	3.586590	1.625220
-5.845950	3.586710	1.626690
-5.846000	3.586760	1.628120
-5.845960	3.586750	1.629530
-5.846580	3.587150	1.631120
-5.846840	3.587320	1.632610
-5.846980	3.587430	1.634070
-5.847570	3.587800	1.635650
-5.847670	3.587880	1.637090
-5.848520	3.588410	1.638750
-5.849010	3.588730	1.640310
-5.849760	3.589200	1.641940
-5.850600	3.589730	1.643590
-5.851320	3.590190	1.645220
-5.852050	3.590650	1.646840
-5.853140	3.591340	1.648570
-5.854470	3.592170	1.650360
-5.855890	3.593050	1.652190
-5.857970	3.594350	1.654200
-5.862000	3.596830	1.656750
-5.875460	3.605110	1.661990
-5.919640	3.632810	1.577430
-5.914620	3.629750	1.577520
-5.909610	3.626690	1.577610
-5.908170	3.625820	1.578650
-5.908140	3.625820	1.580070
-5.908310	3.625940	1.581540
-5.906630	3.624920	1.582510
-5.906300	3.624740	1.583850
-5.899150	3.620370	1.583360
-5.887660	3.613330	1.581690
-5.879360	3.608260	1.580890
-5.875780	3.606070	1.581340
-5.872270	3.603930	1.581810
-5.870070	3.602600	1.582640
-5.867910	3.601290	1.583480
-5.865990	3.600130	1.584370
-5.863960	3.598890	1.585240
-5.863000	3.598320	1.586400
-5.861360	3.597330	1.587370
-5.859420	3.596150	1.588260
-5.858540	3.595630	1.589440
-5.857250	3.594850	1.590500
-5.856320	3.594300	1.591660
-5.855340	3.593710	1.592810
-5.854400	3.593150	1.593970
-5.853410	3.592560	1.595120
-5.852590	3.592070	1.596310
-5.851670	3.591520	1.597480
-5.851030	3.591140	1.598720
-5.850040	3.590550	1.599870
-5.849790	3.590410	1.601210
-5.849010	3.589950	1.602420
-5.848580	3.589700	1.603720
-5.847730	3.589190	1.604900
-5.847310	3.588950	1.606200
-5.846690	3.588580	1.607450
-5.846490	3.588480	1.608810
-5.846030	3.588210	1.610100
-5.845770	3.588070	1.611440
-5.845190	3.587720	1.612700
-5.845200	3.587750	1.614120
-5.844750	3.587480	1.615410
-5.844540	3.587370	1.616770
-5.844530	3.587380	1.618180
-5.844460	3.587350	1.619580
-5.844240	3.587230	1.620930
-5.844300	3.587280	1.622370
-5.844260	3.587270	1.623770
-5.844500	3.587430	1.625250
-5.844450	3.587420	1.626650
-5.844690	3.587580	1.628140
-5.844370	3.587400	1.629460
-5.844870	3.587720	1.631020
-5.845250	3.587970	1.632540
-5.845620	3.588210	1.634060
-5.845730	3.588300	1.635510
-5.846260	3.588640	1.637070
-5.846710	3.588930	1.638620
-5.847460	3.589400	1.640250
-5.847890	3.589680	1.641780
-5.848680	3.590180	1.643430
-5.849600	3.590760	1.645100
-5.850200	3.591140	1.646690
-5.851530	3.591970	1.648490
-5.852720	3.592720	1.650240
-5.854070	3.593570	1.652050
-5.855910	3.594710	1.653990
-5.858220	3.596140	1.656060
-5.863440	3.599360	1.658960
-5.923480	3.636850	1.577990
-5.912690	3.630240	1.576540
-5.908650	3.627780	1.576890
-5.907340	3.626990	1.577970
-5.906520	3.626500	1.579180
-5.907420	3.627070	1.580840
-5.906480	3.626510	1.582020
-5.904560	3.625350	1.582930
-5.897450	3.620990	1.582450
-5.877640	3.608870	1.579970
-5.873820	3.606540	1.580360
-5.870850	3.604730	1.580980
-5.868380	3.603230	1.581730
-5.866450	3.602060	1.582630
-5.864560	3.600910	1.583530
-5.863250	3.600130	1.584590
-5.861250	3.598910	1.585470
-5.860130	3.598240	1.586580
-5.858770	3.597420	1.587630
-5.857590	3.596710	1.588720
-5.856200	3.595870	1.589760
-5.855410	3.595400	1.590960
-5.854220	3.594690	1.592060
-5.853060	3.593990	1.593150
-5.852120	3.593420	1.594310
-5.851360	3.592970	1.595520
-5.850390	3.592390	1.596670
-5.849770	3.592030	1.597920
-5.849320	3.591760	1.599210
-5.848380	3.591200	1.600370
-5.847820	3.590880	1.601640
-5.847140	3.590470	1.602860
-5.846660	3.590190	1.604150
-5.845890	3.589740	1.605350
-5.845830	3.589710	1.606750
-5.845290	3.589400	1.608020
-5.844760	3.589090	1.609290
-5.844510	3.588950	1.610630
-5.844070	3.588700	1.611930
-5.843830	3.588560	1.613280
-5.843490	3.588370	1.614600
-5.843180	3.588190	1.615930
-5.843250	3.588250	1.617360
-5.842780	3.587980	1.618650
-5.842780	3.587990	1.620060
-5.842850	3.588050	1.621500
-5.842720	3.587980	1.622880
-5.842540	3.587890	1.624250
-5.842840	3.588090	1.625750
-5.842810	3.588090	1.627150
-5.843020	3.588230	1.628630
-5.843240	3.588380	1.630110
-5.843760	3.588710	1.631670
-5.843870	3.588800	1.633110
-5.844000	3.588890	1.634570
-5.844600	3.589270	1.636150
-5.845040	3.589560	1.637690
-5.845150	3.589640	1.639140
-5.845870	3.590100	1.640760
-5.846710	3.590630	1.642420
-5.847470	3.591110	1.644050
-5.848320	3.591650	1.645710
-5.849400	3.592330	1.647430
-5.850060	3.592750	1.649040
-5.851450	3.593610	1.650850
-5.853340	3.594790	1.652800
-5.854690	3.595630	1.654600
-5.857100	3.597130	1.656710
-5.861790	3.600020	1.659460
-5.908430	3.629280	1.574470
-5.909840	3.630160	1.576280
-5.907820	3.628930	1.577160
-5.905750	3.627680	1.578040
-5.905570	3.627590	1.579420
-5.904930	3.627210	1.580670
-5.903270	3.626210	1.581650
-5.897320	3.622570	1.581480
-5.885840	3.615540	1.579830
-5.878770	3.611220	1.579350
-5.873360	3.607910	1.579310
-5.871080	3.606530	1.580120
-5.868370	3.604880	1.580810
-5.866060	3.603480	1.581610
-5.864530	3.602550	1.582610
-5.862920	3.601580	1.583590
-5.861080	3.600460	1.584510
-5.859300	3.599380	1.585440
-5.858360	3.598820	1.586600
-5.856920	3.597960	1.587630
-5.855450	3.597070	1.588640
-5.854300	3.596370	1.589750
-5.853150	3.595680	1.590850
-5.852410	3.595250	1.592060
-5.851510	3.594700	1.593230
-5.850240	3.593940	1.594300
-5.849620	3.593580	1.595550
-5.848880	3.593140	1.596760
