-3.526170	5.871230	1.605940
-3.521470	5.863430	1.605210
-3.515770	5.853970	1.604030
-3.512350	5.848300	1.603880
-3.510110	5.844600	1.604260
-3.508450	5.841850	1.604910
-3.506820	5.839170	1.605580
-3.505490	5.836980	1.606380
-3.504430	5.835230	1.607300
-3.503300	5.833390	1.608190
-3.502260	5.831670	1.609120
-3.501440	5.830340	1.610150
-3.500510	5.828800	1.611130
-3.499800	5.827650	1.612210
-3.499000	5.826340	1.613250
-3.498460	5.825470	1.614410
-3.497580	5.824020	1.615410
-3.497070	5.823200	1.616580
-3.496480	5.822250	1.617720
-3.495760	5.821070	1.618790
-3.495240	5.820220	1.619950
-3.494880	5.819640	1.621190
-3.494380	5.818840	1.622370
-3.493840	5.817970	1.623530
-3.493620	5.817620	1.624830
-3.493130	5.816830	1.626010
-3.492800	5.816310	1.627260
-3.492460	5.815770	1.628510
-3.492080	5.815160	1.629730
-3.491740	5.814610	1.630980
-3.491350	5.813990	1.632200
-3.491210	5.813780	1.633550
-3.490960	5.813390	1.634840
-3.490690	5.812970	1.636120
-3.490430	5.812550	1.637400
-3.490330	5.812410	1.638760
-3.490150	5.812140	1.640080
-3.490040	5.811980	1.641440
-3.489850	5.811690	1.642750
-3.489810	5.811630	1.644140
-3.489730	5.811530	1.645510
-3.489680	5.811460	1.646890
-3.489570	5.811310	1.648250
-3.489660	5.811490	1.649700
-3.489500	5.811250	1.651030
-3.489720	5.811640	1.652550
-3.489760	5.811720	1.653970
-3.489740	5.811720	1.655370
-3.489830	5.811890	1.656820
-3.489850	5.811940	1.658240
-3.490200	5.812550	1.659820
-3.490330	5.812790	1.661290
-3.490620	5.813310	1.662840
-3.490790	5.813600	1.664320
-3.490900	5.813810	1.665790
-3.491240	5.814400	1.667360
-3.491730	5.815250	1.669010
-3.492150	5.815970	1.670620
-3.492480	5.816550	1.672190
-3.493160	5.817710	1.673920
-3.493700	5.818630	1.675600
-3.494460	5.819920	1.677370
-3.494970	5.820780	1.679030
-3.495840	5.822260	1.680860
-3.496810	5.823890	1.682740
-3.498390	5.826560	1.684920
-3.499460	5.828370	1.686850
-3.503600	5.835280	1.690260
-3.526740	5.874690	1.605390
-3.523400	5.869160	1.605280
-3.517670	5.859630	1.604080
-3.513060	5.851980	1.603390
-3.510230	5.847300	1.603510
-3.508160	5.843860	1.603970
-3.506490	5.841110	1.604620
-3.505200	5.838990	1.605440
-3.503500	5.836180	1.606070
-3.502640	5.834770	1.607080
-3.501570	5.833020	1.608000
-3.500800	5.831760	1.609060
-3.499860	5.830210	1.610030
-3.498950	5.828720	1.611020
-3.498230	5.827540	1.612100
-3.497480	5.826330	1.613160
-3.496800	5.825210	1.614250
-3.496210	5.824250	1.615390
-3.495590	5.823250	1.616510
-3.494950	5.822210	1.617620
-3.494480	5.821440	1.618810
-3.493850	5.820420	1.619920
-3.493370	5.819640	1.621100
-3.493060	5.819160	1.622370
-3.492480	5.818200	1.623500
-3.492030	5.817490	1.624700
-3.491620	5.816820	1.625920
-3.491360	5.816410	1.627200
-3.491080	5.815980	1.628480
-3.490690	5.815340	1.629700
-3.490360	5.814820	1.630950
-3.490060	5.814350	1.632220
-3.489740	5.813830	1.633470
-3.489520	5.813490	1.634780
-3.489310	5.813170	1.636090
-3.489130	5.812890	1.637410
-3.488940	5.812600	1.638730
-3.488870	5.812500	1.640100
-3.488730	5.812300	1.641440
-3.488520	5.811970	1.642750
-3.488400	5.811800	1.644100
-3.488420	5.811860	1.645520
-3.488140	5.811420	1.646790
-3.488260	5.811650	1.648250
-3.488190	5.811560	1.649630
-3.488150	5.811520	1.651020
-3.488250	5.811710	1.652470
-3.488380	5.811960	1.653940
-3.488290	5.811840	1.655310
-3.488430	5.812100	1.656790
-3.488640	5.812470	1.658290
-3.488750	5.812670	1.659750
-3.488890	5.812940	1.661230
-3.489200	5.813480	1.662790
-3.489520	5.814030	1.664350
-3.489560	5.814120	1.665780
-3.489810	5.814550	1.667300
-3.490280	5.815360	1.668940
-3.490790	5.816220	1.670590
-3.491190	5.816910	1.672190
-3.491540	5.817520	1.673770
-3.492060	5.818400	1.675430
-3.492690	5.819480	1.677150
-3.493600	5.821030	1.679000
-3.494570	5.822670	1.680880
-3.495460	5.824160	1.682720
-3.496430	5.825810	1.684600
-3.497940	5.828350	1.686740
-3.500820	5.833180	1.689550
-3.525360	5.874930	1.605290
-3.520360	5.866630	1.604430
-3.515550	5.858640	1.603650
-3.510740	5.850650	1.602860
-3.508280	5.846580	1.603150
-3.506230	5.843180	1.603620
-3.504740	5.840740	1.604360
-3.503460	5.838630	1.605180
-3.502200	5.836560	1.606010
-3.501150	5.834820	1.606930
-3.500160	5.833210	1.607890
-3.499170	5.831580	1.608840
-3.498260	5.830090	1.609830
-3.497630	5.829060	1.610950
-3.496700	5.827540	1.611930
-3.496110	5.826580	1.613060
-3.495400	5.825410	1.614130
-3.494810	5.824450	1.615270
-3.494120	5.823330	1.616350
-3.493700	5.822660	1.617560
-3.492950	5.821430	1.618620
-3.492600	5.820870	1.619860
-3.492010	5.819910	1.621000
-3.491570	5.819210	1.622200
-3.491110	5.818470	1.623400
-3.490710	5.817820	1.624610
-3.490350	5.817250	1.625850
-3.489990	5.816670	1.627090
-3.489580	5.816010	1.628300
-3.489380	5.815720	1.629620
-3.489000	5.815110	1.630850
-3.488630	5.814500	1.632080
-3.488430	5.814200	1.633390
-3.488160	5.813770	1.634670
-3.488010	5.813550	1.636010
-3.487760	5.813160	1.637300
-3.487620	5.812950	1.638640
-3.487400	5.812610	1.639950
-3.487300	5.812460	1.641300
-3.487180	5.812290	1.642660
-3.487030	5.812070	1.643990
-3.487020	5.812070	1.645400
-3.486960	5.811990	1.646770
-3.486860	5.811850	1.648130
-3.486870	5.811890	1.649550
-3.486920	5.812000	1.650980
-3.486840	5.811900	1.652350
-3.486920	5.812060	1.653790
-3.487030	5.812270	1.655250
-3.487100	5.812400	1.656690
-3.487240	5.812660	1.658170
-3.487290	5.812770	1.659600
-3.487420	5.813010	1.661070
-3.487580	5.813300	1.662550
-3.487920	5.813900	1.664120
-3.488290	5.814530	1.665710
-3.488470	5.814860	1.667200
-3.488930	5.815660	1.668830
-3.489290	5.816280	1.670420
-3.489700	5.816980	1.672020
-3.490070	5.817630	1.673610
-3.490680	5.818670	1.675310
-3.491450	5.819970	1.677090
-3.491970	5.820860	1.678750
-3.492610	5.821950	1.680470
-3.493880	5.824090	1.682500
-3.495110	5.826160	1.684500
-3.496150	5.827930	1.686420
-3.498030	5.831080	1.688740
-3.503490	5.840210	1.692790
-3.521480	5.871060	1.604550
-3.515080	5.860420	1.603050
-3.510160	5.852250	1.602210
-3.507640	5.848070	1.602470
-3.505590	5.844670	1.602940
-3.504150	5.842290	1.603690
-3.502630	5.839790	1.604410
-3.501490	5.837910	1.605290
-3.500360	5.836050	1.606180
-3.499270	5.834270	1.607090
-3.498470	5.832960	1.608130
-3.497340	5.831100	1.609020
-3.496680	5.830030	1.610130
-3.495810	5.828590	1.611130
-3.495140	5.827510	1.612230
-3.494530	5.826520	1.613360
-3.493780	5.825290	1.614420
-3.493180	5.824300	1.615540
-3.492510	5.823220	1.616640
-3.492060	5.822490	1.617840
-3.491290	5.821240	1.618890
-3.490900	5.820610	1.620120
-3.490430	5.819860	1.621310
-3.490110	5.819330	1.622560
-3.489550	5.818440	1.623710
-3.489300	5.818040	1.625000
-3.488840	5.817300	1.626190
-3.488530	5.816810	1.627460
-3.488140	5.816180	1.628680
-3.487770	5.815590	1.629910
-3.487520	5.815200	1.631200
-3.487210	5.814690	1.632460
-3.487020	5.814400	1.633770
-3.486710	5.813930	1.635040
-3.486460	5.813520	1.636320
-3.486410	5.813460	1.637700
-3.486130	5.813020	1.638980
-3.486060	5.812930	1.640350
-3.485800	5.812520	1.641630
-3.485780	5.812510	1.643030
-3.485670	5.812360	1.644390
-3.485530	5.812150	1.645730
-3.485580	5.812250	1.647160
-3.485460	5.812070	1.648510
-3.485440	5.812070	1.649910
-3.485470	5.812140	1.651330
-3.485540	5.812280	1.652770
-3.485480	5.812210	1.654150
-3.485740	5.812670	1.655680
-3.485660	5.812560	1.657050
-3.485860	5.812920	1.658550
-3.486040	5.813250	1.660050
-3.486280	5.813670	1.661570
-3.486400	5.813890	1.663040
-3.486680	5.814380	1.664580
-3.486750	5.814520	1.666020
-3.487170	5.815250	1.667640
-3.487610	5.816000	1.669250
-3.487880	5.816480	1.670800
-3.488400	5.817370	1.672450
-3.488880	5.818200	1.674100
-3.489540	5.819320	1.675820
-3.489950	5.820040	1.677430
-3.490840	5.821540	1.679270
-3.491600	5.822830	1.681050
-3.492390	5.824170	1.682840
-3.493500	5.826050	1.684790
-3.495080	5.828690	1.686960
-3.496780	5.831570	1.689200
-3.502540	5.841190	1.693400
-3.523610	5.877140	1.604690
-3.518670	5.868910	1.603850
-3.511480	5.856960	1.601990
-3.507910	5.851020	1.601770
-3.505620	5.847220	1.602130
-3.503890	5.844370	1.602750
-3.502140	5.841480	1.603360
-3.500960	5.839540	1.604230
-3.499790	5.837600	1.605100
-3.498730	5.835870	1.606020
-3.497650	5.834100	1.606930
-3.496660	5.832460	1.607880
-3.496120	5.831600	1.609050
-3.495070	5.829860	1.609970
-3.494510	5.828940	1.611110
-3.493650	5.827540	1.612120
-3.493030	5.826530	1.613250
-3.492400	5.825500	1.614360
-3.491710	5.824370	1.615450
-3.491010	5.823230	1.616530
-3.490590	5.822560	1.617740
-3.490030	5.821660	1.618890
-3.489640	5.821030	1.620120
-3.489110	5.820170	1.621280
-3.488770	5.819630	1.622520
-3.488310	5.818890	1.623720
-3.487860	5.818150	1.624910
-3.487500	5.817580	1.626150
-3.487180	5.817070	1.627410
-3.486870	5.816580	1.628670
-3.486490	5.815970	1.629900
-3.486230	5.815560	1.631180
-3.485870	5.814980	1.632420
-3.485740	5.814790	1.633760
-3.485380	5.814220	1.635000
-3.485220	5.813980	1.636330
-3.484980	5.813600	1.637630
-3.484800	5.813320	1.638950
-3.484660	5.813120	1.640290
-3.484600	5.813050	1.641660
-3.484390	5.812720	1.642970
-3.484330	5.812640	1.644350
-3.484240	5.812520	1.645710
-3.484200	5.812480	1.647100
-3.484230	5.812540	1.648520
-3.484240	5.812580	1.649930
-3.484250	5.812630	1.651340
-3.484300	5.812730	1.652770
-3.484160	5.812540	1.654120
-3.484210	5.812640	1.655550
-3.484370	5.812920	1.657030
-3.484540	5.813240	1.658520
-3.484660	5.813450	1.659990
-3.484900	5.813890	1.661520
-3.485030	5.814130	1.662990
-3.485220	5.814470	1.664490
-3.485480	5.814930	1.666020
-3.485950	5.815740	1.667650
-3.486310	5.816360	1.669230
-3.486730	5.817080	1.670840
-3.487160	5.817830	1.672460
-3.487550	5.818500	1.674060
-3.488060	5.819380	1.675720
-3.488880	5.820770	1.677520
-3.489420	5.821700	1.679190
-3.490200	5.823030	1.680980
-3.491180	5.824670	1.682860
-3.492130	5.826290	1.684730
-3.493410	5.828450	1.686770
-3.495100	5.831290	1.688990
-3.499320	5.838350	1.692450
-3.523820	5.880120	1.604460
-3.519960	5.873700	1.604120
-3.512940	5.862010	1.602330
-3.507970	5.853760	1.601480
-3.505320	5.849360	1.601680
-3.503350	5.846090	1.602190
-3.501740	5.843430	1.602860
-3.500270	5.841010	1.603600
-3.499220	5.839270	1.604520
-3.497970	5.837210	1.605360
-3.496880	5.835420	1.606260
-3.495820	5.833670	1.607180
-3.495040	5.832400	1.608230
-3.494350	5.831280	1.609330
-3.493520	5.829920	1.610350
-3.492800	5.828750	1.611420
-3.492040	5.827490	1.612480
-3.491340	5.826350	1.613560
-3.490580	5.825110	1.614620
-3.490080	5.824300	1.615790
-3.489500	5.823370	1.616930
-3.488980	5.822520	1.618100
-3.488570	5.821850	1.619310
-3.488100	5.821100	1.620500
-3.487460	5.820050	1.621610
-3.487240	5.819710	1.622910
-3.486720	5.818860	1.624080
-3.486350	5.818270	1.625310
-3.486000	5.817720	1.626560
-3.485660	5.817180	1.627810
-3.485200	5.816430	1.629000
-3.484960	5.816060	1.630290
-3.484730	5.815700	1.631590
-3.484460	5.815260	1.632860
-3.484250	5.814940	1.634170
-3.484030	5.814600	1.635470
-3.483710	5.814100	1.636730
-3.483660	5.814030	1.638110
-3.483460	5.813720	1.639420
-3.483300	5.813480	1.640750
-3.483220	5.813370	1.642120
-3.483070	5.813150	1.643460
-3.482930	5.812940	1.644800
-3.482870	5.812860	1.646180
-3.482900	5.812940	1.647600
-3.482820	5.812830	1.648970
-3.482910	5.813000	1.650420
-3.482830	5.812900	1.651790
-3.482780	5.812840	1.653170
-3.482900	5.813050	1.654640
-3.482960	5.813190	1.656070
-3.483150	5.813530	1.657570
-3.483200	5.813630	1.659000
-3.483470	5.814110	1.660540
-3.483580	5.814330	1.662000
-3.483720	5.814580	1.663480
-3.484080	5.815200	1.665060
-3.484380	5.815720	1.666610
-3.484680	5.816250	1.668160
-3.485020	5.816850	1.669740
-3.485480	5.817640	1.671370
-3.485780	5.818160	1.672920
-3.486320	5.819090	1.674590
-3.486880	5.820040	1.676270
-3.487560	5.821210	1.678010
-3.488210	5.822320	1.679730
-3.489260	5.824080	1.681650
-3.491080	5.827180	1.685350
-3.492080	5.828870	1.687250
-3.494220	5.832470	1.689700
-3.498500	5.839630	1.693180
-3.512550	5.863940	1.602250
-3.507060	5.854800	1.601160
-3.504520	5.850580	1.601410
-3.502570	5.847360	1.601930
-3.499270	5.841890	1.603240
-3.497970	5.839750	1.604050
-3.496770	5.837770	1.604910
-3.495850	5.836260	1.605890
-3.494730	5.834410	1.606790
-3.493950	5.833140	1.607840
-3.493070	5.831690	1.608840
-3.492380	5.830570	1.609930
-3.491490	5.829100	1.610920
-3.490930	5.828190	1.612070
-3.490200	5.827010	1.613140
-3.489600	5.826020	1.614270
-3.489100	5.825210	1.615440
-3.488510	5.824250	1.616580
-3.487870	5.823210	1.617690
-3.487400	5.822460	1.618880
-3.486800	5.821480	1.620000
-3.486450	5.820920	1.621240
-3.485860	5.819950	1.622380
-3.485540	5.819450	1.623630
-3.485110	5.818760	1.624840
-3.484750	5.818180	1.626080
-3.484420	5.817660	1.627330
-3.484220	5.817340	1.628640
-3.483810	5.816690	1.629850
-3.483470	5.816150	1.631100
-3.483230	5.815770	1.632390
-3.483060	5.815500	1.633720
-3.482760	5.815030	1.634990
-3.482560	5.814720	1.636300
-3.482340	5.814370	1.637600
-3.482180	5.814130	1.638930
-3.482070	5.813980	1.640290
-3.481970	5.813830	1.641650
-3.481790	5.813550	1.642970
-3.481650	5.813350	1.644310
-3.481520	5.813160	1.645660
-3.481470	5.813100	1.647040
-3.481500	5.813170	1.648460
-3.481500	5.813200	1.649870
-3.481530	5.813270	1.651290
-3.481530	5.813300	1.652700
-3.481520	5.813300	1.654100
-3.481690	5.813620	1.655590
-3.481810	5.813830	1.657050
-3.481870	5.813960	1.658490
-3.481970	5.814150	1.659940
-3.482170	5.814510	1.661440
-3.482400	5.814920	1.662960
-3.482630	5.815340	1.664480
-3.482840	5.815700	1.665990
-3.483190	5.816310	1.667570
-3.483530	5.816910	1.669140
-3.483860	5.817490	1.670710
-3.484310	5.818260	1.672340
-3.484800	5.819100	1.673980
-3.485240	5.819860	1.675610
-3.486020	5.821190	1.677390
-3.486610	5.822190	1.679090
-3.487220	5.823250	1.680800
-3.488220	5.824930	1.682690
-3.489080	5.826390	1.684520
-3.490160	5.828220	1.686450
-3.491820	5.831010	1.688670
-3.493820	5.834390	1.691050
-3.519740	5.878480	1.604000
-3.513420	5.867950	1.602540
-3.507450	5.858010	1.601220
-3.503770	5.851890	1.600950
-3.501650	5.848370	1.601400
-3.499680	5.845110	1.601900
-3.498610	5.843360	1.602820
-3.497150	5.840940	1.603560
-3.496030	5.839080	1.604460
-3.494590	5.836710	1.605210
-3.494000	5.835740	1.606340
-3.493090	5.834250	1.607330
-3.492180	5.832760	1.608320
-3.491350	5.831400	1.609350
-3.490440	5.829910	1.610340
-3.489840	5.828920	1.611470
-3.489190	5.827870	1.612580
-3.488550	5.826820	1.613690
-3.487990	5.825920	1.614840
-3.487440	5.825020	1.615990
-3.486840	5.824040	1.617120
-3.486330	5.823220	1.618290
-3.485770	5.822300	1.619430
-3.485330	5.821600	1.620630
-3.484820	5.820760	1.621800
-3.484350	5.820010	1.622990
-3.484030	5.819500	1.624240
-3.483640	5.818870	1.625470
-3.483230	5.818210	1.626680
-3.483010	5.817860	1.627980
-3.482600	5.817210	1.629200
-3.482380	5.816860	1.630500
-3.482120	5.816460	1.631780
-3.481750	5.815860	1.633010
-3.481660	5.815740	1.634380
-3.481350	5.815250	1.635640
-3.481120	5.814880	1.636930
-3.480920	5.814570	1.638250
-3.480800	5.814390	1.639590
-3.480610	5.814110	1.640910
-3.480600	5.814120	1.642320
-3.480450	5.813890	1.643650
-3.480360	5.813760	1.645010
-3.480290	5.813680	1.646390
-3.480210	5.813550	1.647760
-3.480320	5.813770	1.649220
-3.480170	5.813540	1.650550
-3.480220	5.813660	1.651990
-3.480350	5.813900	1.653460
-3.480240	5.813730	1.654810
-3.480430	5.814080	1.656310
-3.480540	5.814290	1.657770
-3.480640	5.814480	1.659220
-3.480860	5.814860	1.660730
-3.480960	5.815060	1.662190
-3.481150	5.815410	1.663690
-3.481420	5.815880	1.665230
-3.481710	5.816380	1.666770
-3.482070	5.817000	1.668350
-3.482400	5.817590	1.669920
-3.482610	5.817970	1.671430
-3.483080	5.818780	1.673070
-3.483580	5.819630	1.674720
-3.484280	5.820820	1.676470
-3.484840	5.821780	1.678150
-3.485610	5.823100	1.679940
-3.486410	5.824470	1.681740
-3.487330	5.826010	1.683590
-3.488320	5.827690	1.685480
-3.489650	5.829940	1.687540
-3.491230	5.832600	1.689720
-3.494310	5.837770	1.692630
-3.517630	5.877570	1.603670
-3.509850	5.864600	1.601540
-3.504830	5.856240	1.600660
-3.501780	5.851170	1.600680
-3.499870	5.848020	1.601210
-3.498150	5.845160	1.601840
-3.496890	5.843090	1.602670
-3.495660	5.841040	1.603510
-3.494400	5.838960	1.604340
-3.493410	5.837330	1.605290
-3.492420	5.835710	1.606250
-3.491670	5.834490	1.607310
-3.490630	5.832770	1.608240
-3.489880	5.831530	1.609300
-3.489110	5.830270	1.610350
-3.488320	5.828970	1.611390
-3.487730	5.828020	1.612520
-3.487200	5.827150	1.613680
-3.486440	5.825900	1.614740
-3.486040	5.825250	1.615950
-3.485460	5.824320	1.617100
-3.484900	5.823400	1.618240
-3.484460	5.822680	1.619440
-3.483990	5.821920	1.620630
-3.483620	5.821310	1.621860
-3.483120	5.820510	1.623030
-3.482760	5.819950	1.624280
-3.482340	5.819270	1.625490
-3.482000	5.818730	1.626730
-3.481700	5.818250	1.628000
-3.481290	5.817590	1.629220
-3.481050	5.817220	1.630510
-3.480800	5.816840	1.631800
-3.480550	5.816450	1.633090
-3.480300	5.816060	1.634380
-3.480130	5.815790	1.635710
-3.479910	5.815440	1.637010
-3.479710	5.815130	1.638320
-3.479530	5.814860	1.639640
-3.479430	5.814710	1.641000
-3.479330	5.814570	1.642360
-3.479140	5.814270	1.643680
-3.479060	5.814160	1.645050
-3.479010	5.814100	1.646430
-3.478940	5.814010	1.647800
-3.478920	5.814000	1.649200
-3.478930	5.814030	1.650610
-3.479050	5.814250	1.652070
-3.479130	5.814410	1.653510
-3.479000	5.814220	1.654860
-3.479140	5.814480	1.656330
-3.479230	5.814650	1.657780
-3.479450	5.815040	1.659290
-3.479540	5.815220	1.660740
-3.479860	5.815770	1.662300
-3.479990	5.816010	1.663770
-3.480280	5.816530	1.665320
-3.480510	5.816940	1.666840
-3.480780	5.817410	1.668380
-3.481000	5.817800	1.669900
-3.481570	5.818780	1.671580
-3.481820	5.819220	1.673110
-3.482440	5.820290	1.674820
-3.482970	5.821200	1.676490
-3.483680	5.822410	1.678240
-3.484380	5.823610	1.679990
-3.485020	5.824700	1.681710
-3.485810	5.826050	1.683500
-3.487110	5.828240	1.685540
-3.488160	5.830020	1.687460
-3.489560	5.832370	1.689550
-3.492110	5.836670	1.692200
-3.516310	5.877960	1.603410
-3.507990	5.864070	1.601020
-3.503200	5.856090	1.600250
-3.500650	5.851860	1.600490
-3.498700	5.848620	1.601010
-3.497140	5.846040	1.601710
-3.495580	5.843450	1.602400
-3.494260	5.841270	1.603210
-3.493270	5.839650	1.604160
-3.492150	5.837790	1.605060
-3.491310	5.836410	1.606080
-3.490370	5.834880	1.607060
-3.489400	5.833280	1.608020
-3.488920	5.832500	1.609210
-3.488010	5.831010	1.610200
-3.487260	5.829770	1.611260
-3.486490	5.828510	1.612300
-3.485870	5.827500	1.613420
-3.485280	5.826550	1.614560
-3.484870	5.825880	1.615770
-3.484220	5.824810	1.616870
-3.483720	5.824010	1.618050
-3.483170	5.823110	1.619200
-3.482720	5.822380	1.620390
-3.482260	5.821640	1.621580
-3.481880	5.821020	1.622810
-3.481590	5.820570	1.624080
-3.481210	5.819950	1.625310
-3.480820	5.819330	1.626530
-3.480580	5.818950	1.627830
-3.480100	5.818180	1.629010
-3.479850	5.817790	1.630300
-3.479540	5.817290	1.631560
-3.479310	5.816920	1.632860
-3.479080	5.816570	1.634150
-3.478800	5.816130	1.635430
-3.478610	5.815840	1.636750
-3.478490	5.815650	1.638090
-3.478310	5.815390	1.639420
-3.478130	5.815110	1.640740
-3.477980	5.814880	1.642070
-3.477990	5.814920	1.643490
-3.477780	5.814590	1.644790
-3.477700	5.814480	1.646160
-3.477640	5.814410	1.647540
-3.477750	5.814620	1.649000
-3.477630	5.814450	1.650350
-3.477720	5.814620	1.651800
-3.477630	5.814500	1.653160
-3.477810	5.814820	1.654650
-3.477770	5.814780	1.656050
-3.477970	5.815140	1.657550
-3.478180	5.815510	1.659050
-3.478240	5.815630	1.660490
-3.478480	5.816050	1.662010
-3.478680	5.816420	1.663520
-3.478920	5.816850	1.665040
-3.479130	5.817220	1.666550
-3.479420	5.817730	1.668100
-3.479860	5.818490	1.669720
-3.480100	5.818920	1.671250
-3.480620	5.819820	1.672910
-3.481050	5.820560	1.674520
-3.481680	5.821640	1.676240
-3.482180	5.822490	1.677890
-3.482860	5.823650	1.679630
-3.483580	5.824870	1.681390
-3.484250	5.826030	1.683130
-3.485360	5.827920	1.685080
-3.486820	5.830360	1.687190
-3.488080	5.832510	1.689220
-3.490160	5.836000	1.691640
-3.516730	5.881130	1.603600
-3.508390	5.867210	1.601210
-3.502960	5.858150	1.600140
-3.500360	5.853820	1.600370
-3.498000	5.849910	1.600700
-3.496380	5.847230	1.601370
-3.494900	5.844780	1.602100
-3.493480	5.842430	1.602860
-3.492310	5.840500	1.603730
-3.491330	5.838870	1.604680
-3.490330	5.837230	1.605630
-3.489380	5.835670	1.606600
-3.488570	5.834330	1.607630
-3.487700	5.832910	1.608640
-3.486940	5.831660	1.609690
-3.486110	5.830300	1.610720
-3.485450	5.829220	1.611820
-3.485030	5.828540	1.613020
-3.484410	5.827530	1.614140
-3.483720	5.826410	1.615230
-3.483220	5.825600	1.616410
-3.482620	5.824620	1.617530
-3.482330	5.824150	1.618800
-3.481790	5.823280	1.619960
-3.481230	5.822370	1.621110
-3.480820	5.821700	1.622320
-3.480450	5.821100	1.623560
-3.480070	5.820500	1.624790
-3.479750	5.819990	1.626040
-3.479380	5.819390	1.627270
-3.479120	5.818980	1.628560
-3.478770	5.818430	1.629810
-3.478430	5.817890	1.631050
-3.478190	5.817500	1.632340
-3.477990	5.817190	1.633660
-3.477740	5.816800	1.634940
-3.477540	5.816490	1.636260
-3.477420	5.816310	1.637610
-3.477110	5.815840	1.640270
-3.476900	5.815510	1.641580
-3.476820	5.815410	1.642950
-3.476670	5.815180	1.644290
-3.476690	5.815230	1.645700
-3.476660	5.815210	1.647090
-3.476570	5.815090	1.648460
-3.476560	5.815100	1.649860
-3.476510	5.815040	1.651240
-3.476630	5.815260	1.652700
-3.476610	5.815250	1.654100
-3.476610	5.815280	1.655510
-3.476820	5.815650	1.657010
-3.476880	5.815780	1.658450
-3.476990	5.815990	1.659910
-3.477200	5.816360	1.661420
-3.477500	5.816890	1.662970
-3.477680	5.817210	1.664470
-3.477920	5.817640	1.665990
-3.478380	5.818440	1.667620
-3.478410	5.818510	1.669040
-3.478870	5.819300	1.670670
-3.479260	5.819980	1.672270
-3.479710	5.820760	1.673900
-3.480260	5.821710	1.675580
-3.480990	5.822950	1.677340
-3.481230	5.823380	1.678870
-3.482230	5.825060	1.680760
-3.483010	5.826410	1.682550
-3.483820	5.827790	1.684360
-3.485000	5.829780	1.686340
-3.486330	5.832030	1.688400
-3.488000	5.834850	1.690620
-3.491430	5.840600	1.693700
-3.514890	5.880590	1.603490
-3.505490	5.864910	1.600620
-3.501020	5.857440	1.599990
-3.498340	5.852990	1.600170
-3.496840	5.850510	1.600900
-3.494690	5.846940	1.601320
-3.493510	5.844980	1.602190
-3.492180	5.842790	1.602990
-3.490780	5.840470	1.603750
-3.489900	5.839020	1.604750
-3.488980	5.837520	1.605740
-3.488170	5.836170	1.606770
-3.487260	5.834680	1.607760
-3.486510	5.833450	1.608820
-3.485660	5.832050	1.609840
-3.484970	5.830930	1.610930
-3.484400	5.829990	1.612070
-3.483650	5.828770	1.613130
-3.482970	5.827660	1.614220
-3.482550	5.826980	1.615430
-3.482050	5.826170	1.616600
-3.481480	5.825230	1.617740
-3.480950	5.824370	1.618900
-3.480480	5.823610	1.620090
-3.480010	5.822860	1.621280
-3.479640	5.822260	1.622510
-3.479220	5.821580	1.623720
-3.478890	5.821050	1.624970
-3.478420	5.820300	1.626160
-3.478140	5.819840	1.627430
-3.477920	5.819500	1.628730
-3.477490	5.818810	1.629930
-3.477320	5.818560	1.631260
-3.477030	5.818080	1.632530
-3.476770	5.817670	1.633810
-3.476590	5.817390	1.635130
-3.476340	5.817010	1.636420
-3.476200	5.816800	1.637760
-3.475960	5.816420	1.639050
-3.475830	5.816240	1.640400
-3.475740	5.816100	1.641760
-3.475630	5.815950	1.643110
-3.475550	5.815840	1.644480
-3.475490	5.815760	1.645860
-3.475450	5.815710	1.647240
-3.475360	5.815580	1.648610
-3.475350	5.815600	1.650010
-3.475290	5.815520	1.651390
-3.475460	5.815830	1.652880
-3.475350	5.815680	1.654230
-3.475570	5.816070	1.655750
-3.475680	5.816270	1.657200
-3.475770	5.816450	1.658660
-3.475820	5.816560	1.660090
-3.475990	5.816860	1.661580
-3.476180	5.817220	1.663080
-3.476430	5.817650	1.664610
-3.476640	5.818030	1.666120
-3.477090	5.818800	1.667740
-3.477330	5.819230	1.669270
-3.477710	5.819890	1.670860
-3.478150	5.820660	1.672480
-3.478640	5.821490	1.674130
-3.479190	5.822450	1.675800
-3.479610	5.823180	1.677420
-3.480300	5.824340	1.679160
-3.480890	5.825370	1.680860
-3.481800	5.826910	1.682710
-3.484080	5.830770	1.686640
-3.485020	5.832380	1.688510
-3.487050	5.835790	1.690910
-3.490680	5.841880	1.694080
-3.507440	5.870770	1.601420
-3.500990	5.860000	1.599890
-3.497990	5.855010	1.599930
-3.496050	5.851770	1.600450
-3.494350	5.848960	1.601090
-3.492770	5.846340	1.601770
-3.491440	5.844140	1.602570
-3.490260	5.842190	1.603440
-3.489050	5.840180	1.604290
-3.488450	5.839200	1.605420
-3.487100	5.836970	1.606200
-3.486520	5.836020	1.607340
-3.485600	5.834510	1.608320
-3.484700	5.833010	1.609310
-3.484230	5.832260	1.610500
-3.483480	5.831030	1.611560
-3.482810	5.829930	1.612650
-3.482120	5.828800	1.613740
-3.481630	5.827990	1.614920
-3.480950	5.826880	1.616010
-3.480260	5.825740	1.617090
-3.479920	5.825200	1.618350
-3.479470	5.824480	1.619540
-3.479010	5.823720	1.620730
-3.478690	5.823220	1.621990
-3.478190	5.822400	1.623170
-3.477840	5.821840	1.624410
-3.477500	5.821290	1.625660
-3.477220	5.820840	1.626930
-3.476750	5.820090	1.628120
-3.476510	5.819710	1.629410
-3.476180	5.819170	1.630660
-3.475910	5.818750	1.631940
-3.475650	5.818330	1.633220
-3.475430	5.817990	1.634520
-3.475280	5.817760	1.635860
-3.475090	5.817470	1.637170
-3.474920	5.817220	1.638500
-3.474770	5.816980	1.639830
-3.474560	5.816660	1.641140
-3.474520	5.816610	1.642530
-3.474380	5.816390	1.643860
-3.474270	5.816230	1.645220
-3.474240	5.816210	1.646610
-3.474170	5.816110	1.647990
-3.474110	5.816040	1.649360
-3.474220	5.816250	1.650830
-3.474140	5.816150	1.652200
-3.474310	5.816460	1.653690
-3.474250	5.816380	1.655070
-3.474420	5.816690	1.656550
-3.474470	5.816800	1.657990
-3.474650	5.817140	1.659480
-3.474730	5.817300	1.660930
-3.474900	5.817620	1.662420
-3.475170	5.818100	1.663960
-3.475340	5.818410	1.665450
-3.475780	5.819150	1.667060
-3.476010	5.819560	1.668580
-3.476310	5.820100	1.670140
-3.476800	5.820950	1.671780
-3.477040	5.821370	1.673310
-3.477630	5.822380	1.675000
-3.478140	5.823270	1.676660
-3.478730	5.824280	1.678360
-3.479310	5.825280	1.680050
-3.480280	5.826920	1.681930
-3.481110	5.828330	1.683740
-3.482150	5.830090	1.685650
-3.483210	5.831890	1.687580
-3.484710	5.834430	1.689720
-3.486960	5.838210	1.692230
-3.511240	5.879660	1.602790
-3.502340	5.864790	1.600140
-3.498260	5.857990	1.599690
-3.496030	5.854280	1.600080
-3.493670	5.850340	1.600400
-3.492210	5.847930	1.601150
-3.490940	5.845830	1.601970
-3.489480	5.843400	1.602710
-3.488410	5.841640	1.603630
-3.487430	5.840020	1.604590
-3.486570	5.838610	1.605600
-3.485600	5.837010	1.606560
-3.484700	5.835530	1.607550
-3.483890	5.834200	1.608580
-3.483160	5.833010	1.609650
-3.482690	5.832250	1.610840
-3.481960	5.831040	1.611910
-3.481360	5.830070	1.613040
-3.480650	5.828890	1.614110
-3.480010	5.827850	1.615220
-3.479550	5.827100	1.616410
-3.479040	5.826280	1.617580
-3.478520	5.825430	1.618740
-3.478140	5.824820	1.619970
-3.477600	5.823930	1.621120
-3.477260	5.823390	1.622370
-3.476930	5.822860	1.623620
-3.476570	5.822290	1.624860
-3.476120	5.821560	1.626060
-3.475780	5.821010	1.627300
-3.475440	5.820470	1.628550
-3.475200	5.820100	1.629850
-3.474950	5.819710	1.631140
-3.474670	5.819250	1.632410
-3.474400	5.818820	1.633690
-3.474230	5.818570	1.635020
-3.474030	5.818250	1.636330
-3.473800	5.817890	1.637620
-3.473580	5.817560	1.638930
-3.473410	5.817290	1.640250
-3.473390	5.817290	1.641650
-3.473300	5.817160	1.643010
-3.473220	5.817060	1.644380
-3.473070	5.816820	1.645720
-3.473080	5.816870	1.647130
-3.473070	5.816870	1.648530
-3.472910	5.816640	1.649860
-3.473000	5.816800	1.651310
-3.473030	5.816870	1.652730
-3.473060	5.816950	1.654150
-3.473140	5.817110	1.655600
-3.473300	5.817410	1.657080
-3.473310	5.817450	1.658500
-3.473570	5.817910	1.660030
-3.473720	5.818190	1.661510
-3.473820	5.818380	1.662960
-3.474000	5.818710	1.664460
-3.474340	5.819290	1.666030
-3.474990	5.820430	1.669160
-3.475270	5.820920	1.670700
-3.475580	5.821460	1.672260
-3.476190	5.822520	1.673970
-3.476700	5.823400	1.675630
-3.477340	5.824490	1.677340
-3.477960	5.825560	1.679060
-3.478510	5.826510	1.680740
-3.479320	5.827880	1.682540
-3.480500	5.829890	1.684520
-3.481200	5.831080	1.686270
-3.482630	5.833510	1.688380
-3.484250	5.836240	1.690580
-3.487450	5.841630	1.693550
-3.508460	5.877640	1.602290
-3.500630	5.864550	1.600120
-3.496550	5.857750	1.599670
-3.494350	5.854090	1.600080
-3.492350	5.850770	1.600570
-3.490870	5.848300	1.601290
-3.489430	5.845910	1.602040
-3.488260	5.843980	1.602910
-3.487340	5.842460	1.603900
-3.486240	5.840640	1.604800
-3.485130	5.838800	1.605690
-3.484390	5.837590	1.606760
-3.483480	5.836100	1.607750
-3.482820	5.835020	1.608850
-3.482080	5.833800	1.609910
-3.481360	5.832630	1.610990
-3.480510	5.831220	1.612000
-3.480040	5.830460	1.613190
-3.479550	5.829660	1.614370
-3.478850	5.828510	1.615450
-3.478320	5.827650	1.616610
-3.477790	5.826780	1.617770
-3.477350	5.826080	1.618970
-3.476920	5.825380	1.620170
-3.476340	5.824430	1.621310
-3.476080	5.824010	1.622590
-3.475670	5.823360	1.623810
-3.475360	5.822860	1.625070
-3.474840	5.822010	1.626230
-3.474660	5.821740	1.627550
-3.474350	5.821240	1.628810
-3.474050	5.820770	1.630080
-3.473710	5.820210	1.631320
-3.473450	5.819800	1.632600
-3.473230	5.819450	1.633900
-3.473000	5.819100	1.635200
-3.472830	5.818830	1.636530
-3.472560	5.818410	1.637800
-3.472500	5.818330	1.639180
-3.472300	5.818020	1.640490
-3.472220	5.817920	1.641860
-3.472150	5.817820	1.643230
-3.471910	5.817450	1.644530
-3.471910	5.817470	1.645930
-3.471860	5.817410	1.647310
-3.471850	5.817410	1.648710
-3.471810	5.817380	1.650100
-3.471800	5.817380	1.651510
-3.471900	5.817570	1.652960
-3.471920	5.817640	1.654380
-3.472020	5.817820	1.655830
-3.472160	5.818080	1.657300
-3.472360	5.818450	1.658810
-3.472360	5.818470	1.660210
-3.472580	5.818850	1.661720
-3.472760	5.819190	1.663220
-3.473020	5.819650	1.664750
-3.473250	5.820050	1.666270
-3.473620	5.820690	1.667860
-3.473970	5.821310	1.669430
-3.474280	5.821850	1.670990
-3.474680	5.822540	1.672590
-3.475000	5.823100	1.674160
-3.475640	5.824200	1.675880
-3.476310	5.825350	1.677610
-3.476800	5.826190	1.679260
-3.477580	5.827530	1.681050
-3.478290	5.828740	1.682810
-3.479210	5.830310	1.684670
-3.480310	5.832180	1.686620
-3.481540	5.834260	1.688630
-3.483050	5.836800	1.690770
-3.486660	5.842880	1.693940
-3.510140	5.883100	1.602970
-3.496610	5.860470	1.599610
-3.493810	5.855800	1.599740
-3.491790	5.852450	1.600220
-3.490350	5.850070	1.600970
-3.488890	5.847640	1.601710
-3.487640	5.845560	1.602540
-3.486610	5.843870	1.603480
-3.485280	5.841660	1.604270
-3.484460	5.840310	1.605300
-3.483540	5.838800	1.606290
-3.482670	5.837360	1.607290
-3.481910	5.836110	1.608350
-3.481160	5.834880	1.609400
-3.480420	5.833670	1.610470
-3.479640	5.832380	1.611510
-3.479000	5.831340	1.612620
-3.478470	5.830470	1.613780
-3.477820	5.829410	1.614880
-3.477260	5.828490	1.616030
-3.476910	5.827930	1.617270
-3.476390	5.827090	1.618440
-3.475880	5.826250	1.619610
-3.475410	5.825490	1.620790
-3.474850	5.824580	1.621940
-3.474570	5.824140	1.623220
-3.474210	5.823560	1.624460
-3.473830	5.822940	1.625690
-3.473570	5.822530	1.626970
-3.473180	5.821910	1.628200
-3.472830	5.821350	1.629440
-3.472670	5.821110	1.630780
-3.472430	5.820720	1.632070
-3.472150	5.820270	1.633340
-3.471930	5.819940	1.634650
-3.471780	5.819710	1.635980
-3.471520	5.819300	1.637260
-3.471350	5.819040	1.638590
-3.471150	5.818720	1.639900
-3.471020	5.818540	1.641240
-3.470850	5.818270	1.642570
-3.470880	5.818340	1.643990
-3.470860	5.818330	1.645380
-3.470620	5.817970	1.646680
-3.470620	5.817980	1.648080
-3.470730	5.818190	1.649540
-3.470650	5.818080	1.650910
-3.470660	5.818130	1.652320
-3.470730	5.818270	1.653760
-3.470840	5.818470	1.655220
-3.470930	5.818660	1.656670
-3.470990	5.818780	1.658110
-3.471180	5.819120	1.659600
-3.471320	5.819380	1.661080
-3.471450	5.819630	1.662550
-3.471750	5.820150	1.664100
-3.471930	5.820480	1.665600
-3.472270	5.821070	1.667170
-3.472570	5.821590	1.668720
-3.472960	5.822290	1.670320
-3.473410	5.823060	1.671950
-3.473730	5.823630	1.673510
-3.474180	5.824410	1.675140
-3.474840	5.825530	1.676870
-3.475230	5.826210	1.678470
-3.476040	5.827590	1.680270
-3.476780	5.828850	1.682040
-3.477770	5.830550	1.683930
-3.478680	5.832090	1.685780
-3.479850	5.834070	1.687760
-3.481460	5.836800	1.689960
-3.483510	5.840250	1.692370
-3.510700	5.886720	1.603570
-3.502210	5.872530	1.601110
-3.496130	5.862360	1.599740
-3.493580	5.858110	1.599980
-3.491250	5.854220	1.600320
-3.489590	5.851460	1.600970
-3.487900	5.848660	1.601610
-3.486640	5.846570	1.602430
-3.485560	5.844780	1.603350
-3.484440	5.842940	1.604240
-3.483410	5.841220	1.605170
-3.482540	5.839800	1.606180
-3.481550	5.838160	1.607130
-3.480780	5.836890	1.608180
-3.479960	5.835550	1.609210
-3.479580	5.834930	1.610440
-3.478710	5.833490	1.611440
-3.478130	5.832550	1.612580
-3.477520	5.831560	1.613700
-3.476950	5.830610	1.614840
-3.476250	5.829470	1.615920
-3.475810	5.828750	1.617120
-3.475370	5.828050	1.618320
-3.474870	5.827230	1.619490
-3.474430	5.826520	1.620690
-3.473900	5.825660	1.621850
-3.473500	5.825010	1.623070
-3.473100	5.824370	1.624290
-3.472750	5.823800	1.625530
-3.472400	5.823240	1.626770
-3.472120	5.822800	1.628050
-3.471750	5.822210	1.629280
-3.471470	5.821750	1.630550
-3.471280	5.821460	1.631860
-3.471030	5.821060	1.633150
-3.470740	5.820610	1.634420
-3.470600	5.820390	1.635760
-3.470440	5.820150	1.637090
-3.470310	5.819970	1.638440
-3.470020	5.819490	1.639700
-3.469920	5.819360	1.641070
-3.469850	5.819260	1.642440
-3.469760	5.819130	1.643800
-3.469650	5.818980	1.645160
-3.469660	5.819010	1.646570
-3.469620	5.818980	1.647960
-3.469490	5.818780	1.649300
-3.469390	5.818640	1.650670
-3.469470	5.818800	1.652110
-3.469480	5.818840	1.653520
-3.469700	5.819240	1.655040
-3.469710	5.819280	1.656450
-3.469810	5.819470	1.657900
-3.469970	5.819750	1.659380
-3.469950	5.819750	1.660780
-3.470300	5.820360	1.662360
-3.470520	5.820750	1.663870
-3.470780	5.821220	1.665410
-3.470990	5.821590	1.666910
-3.471320	5.822170	1.668480
-3.471640	5.822730	1.670040
-3.472020	5.823400	1.671640
-3.472400	5.824060	1.673230
-3.472880	5.824880	1.674870
-3.473430	5.825830	1.676540
-3.474150	5.827060	1.678300
-3.474780	5.828150	1.680020
-3.475420	5.829240	1.681740
-3.476140	5.830480	1.683500
-3.477310	5.832450	1.685480
-3.478600	5.834650	1.687520
-3.479850	5.836770	1.689540
-3.481600	5.839740	1.691800
-3.505410	5.880530	1.602480
-3.497660	5.867570	1.600350
-3.493220	5.860140	1.599730
-3.490640	5.855830	1.599950
-3.489180	5.853410	1.600690
-3.487420	5.850490	1.601300
-3.486210	5.848470	1.602150
-3.484920	5.846330	1.602960
-3.483850	5.844580	1.603880
-3.482780	5.842800	1.604790
-3.481860	5.841290	1.605780
-3.480870	5.839650	1.606730
-3.480070	5.838330	1.607770
-3.479330	5.837110	1.608830
-3.478600	5.835920	1.609900
-3.477930	5.834820	1.611000
-3.477290	5.833760	1.612110
-3.476510	5.832490	1.613150
-3.475870	5.831440	1.614260
-3.475420	5.830710	1.615460
-3.474880	5.829830	1.616610
-3.474330	5.828920	1.617760
-3.473820	5.828090	1.618930
-3.473410	5.827430	1.620140
-3.472910	5.826620	1.621320
-3.472540	5.826030	1.622550
-3.472100	5.825310	1.623750
-3.471910	5.825020	1.625070
-3.471420	5.824210	1.626240
-3.471090	5.823690	1.627500
-3.470910	5.823410	1.628810
-3.470450	5.822670	1.630010
-3.470340	5.822500	1.631360
-3.469990	5.821940	1.632600
-3.469750	5.821570	1.633890
-3.469570	5.821280	1.635210
-3.469230	5.820750	1.636460
-3.469130	5.820600	1.637810
-3.469000	5.820400	1.639160
-3.468840	5.820160	1.640490
-3.468750	5.820040	1.641850
-3.468610	5.819830	1.643190
-3.468520	5.819700	1.644560
-3.468530	5.819740	1.645970
-3.468440	5.819620	1.647330
-3.468260	5.819340	1.648650
-3.468280	5.819400	1.650070
-3.468360	5.819560	1.651520
-3.468470	5.819770	1.652980
-3.468500	5.819840	1.654400
-3.468590	5.820010	1.655850
-3.468590	5.820040	1.657260
-3.468800	5.820410	1.658770
-3.468890	5.820590	1.660220
-3.469020	5.820840	1.661690
-3.469230	5.821210	1.663200
-3.469630	5.821900	1.664800
-3.469860	5.822320	1.666320
-3.470030	5.822630	1.667810
-3.470360	5.823210	1.669380
-3.470790	5.823960	1.671000
-3.471040	5.824390	1.672520
-3.471610	5.825380	1.674210
-3.472090	5.826210	1.675850
-3.472800	5.827420	1.677600
-3.473380	5.828430	1.679300
-3.474090	5.829650	1.681050
-3.474870	5.830980	1.682840
-3.475710	5.832410	1.684660
-3.477060	5.834700	1.686730
-3.478410	5.836980	1.688790
-3.479920	5.839550	1.690940
-3.482990	5.844730	1.693850
-3.510250	5.891260	1.603830
-3.504310	5.881310	1.602540
-3.496310	5.867910	1.600290
-3.492190	5.861030	1.599820
-3.489760	5.856970	1.600110
-3.487960	5.853980	1.600700
-3.486310	5.851240	1.601350
-3.484950	5.848980	1.602130
-3.483710	5.846920	1.602970
-3.482470	5.844870	1.603810
-3.481630	5.843490	1.604830
-3.480770	5.842070	1.605840
-3.479640	5.840200	1.606730
-3.478900	5.838970	1.607790
-3.478200	5.837830	1.608880
-3.477350	5.836430	1.609890
-3.476800	5.835530	1.611040
-3.476130	5.834430	1.612140
-3.475400	5.833230	1.613200
-3.474880	5.832370	1.614370
-3.474300	5.831440	1.615510
-3.473740	5.830510	1.616650
-3.473140	5.829530	1.617770
-3.472730	5.828880	1.618990
-3.472310	5.828180	1.620200
-3.471850	5.827450	1.621390
-3.471360	5.826640	1.622570
-3.471080	5.826200	1.623840
-3.470770	5.825710	1.625100
-3.470300	5.824940	1.626290
-3.469990	5.824440	1.627550
-3.469730	5.824040	1.628830
-3.469370	5.823460	1.630070
-3.469170	5.823140	1.631380
-3.468920	5.822750	1.632660
-3.468530	5.822120	1.633890
-3.468430	5.821980	1.635240
-3.468170	5.821570	1.636530
-3.468050	5.821380	1.637880
-3.467920	5.821190	1.639220
-3.467760	5.820950	1.640550
-3.467670	5.820830	1.641920
-3.467620	5.820760	1.643300
-3.467440	5.820480	1.644620
-3.467450	5.820530	1.646030
-3.467300	5.820300	1.647360
-3.467330	5.820370	1.648780
-3.467310	5.820360	1.650180
-3.467360	5.820480	1.651620
-3.467210	5.820260	1.652950
-3.467370	5.820550	1.654440
-3.467470	5.820730	1.655890
-3.467590	5.820960	1.657350
-3.467670	5.821120	1.658800
-3.467850	5.821450	1.660300
-3.468000	5.821720	1.661770
-3.468190	5.822070	1.663280
-3.468410	5.822450	1.664790
-3.468650	5.822880	1.666310
-3.469000	5.823500	1.667890
-3.469310	5.824050	1.669450
-3.469770	5.824850	1.671080
-3.470060	5.825350	1.672630
-3.470650	5.826360	1.674330
-3.471160	5.827250	1.675990
-3.471890	5.828500	1.677750
-3.472200	5.829040	1.679310
-3.473040	5.830480	1.681130
-3.473870	5.831890	1.682940
-3.474660	5.833250	1.684740
-3.475800	5.835190	1.686710
-3.477460	5.838000	1.688930
-3.478730	5.840150	1.690960
-3.503790	5.882990	1.602760
-3.495810	5.869620	1.600530
-3.491590	5.862560	1.600010
-3.488650	5.857660	1.600070
-3.486790	5.854550	1.600630
-3.485350	5.852160	1.601380
-3.483920	5.849800	1.602130
-3.482720	5.847800	1.602980
-3.481430	5.845660	1.603800
-3.480580	5.844250	1.604810
-3.479950	5.843220	1.605930
-3.478820	5.841360	1.606820
-3.478000	5.840000	1.607840
-3.477210	5.838700	1.608890
-3.476550	5.837610	1.609990
-3.475830	5.836440	1.611060
-3.474970	5.835010	1.612070
-3.474440	5.834150	1.613230
-3.473780	5.833060	1.614320
-3.473290	5.832260	1.615500
-3.472810	5.831480	1.616680
-3.472390	5.830800	1.617900
-3.471740	5.829740	1.619000
-3.471270	5.828970	1.620180
-3.470870	5.828340	1.621400
-3.470500	5.827730	1.622630
-3.470020	5.826950	1.623820
-3.469620	5.826300	1.625030
-3.469330	5.825840	1.626300
-3.469030	5.825370	1.627570
-3.468760	5.824940	1.628850
-3.468400	5.824350	1.630080
-3.468060	5.823820	1.631330
-3.467800	5.823410	1.632610
-3.467610	5.823100	1.633930
-3.467410	5.822800	1.635240
-3.467140	5.822370	1.636520
-3.467030	5.822200	1.637870
-3.466850	5.821930	1.639190
-3.466680	5.821670	1.640520
-3.466610	5.821580	1.641890
-3.466350	5.821170	1.643170
-3.466400	5.821270	1.644600
-3.466440	5.821360	1.646020
-3.466310	5.821170	1.647370
-3.466250	5.821090	1.648750
-3.466220	5.821060	1.650140
-3.466260	5.821160	1.651570
-3.466210	5.821100	1.652950
-3.466380	5.821410	1.654440
-3.466420	5.821500	1.655870
-3.466530	5.821710	1.657330
-3.466630	5.821900	1.658780
-3.466910	5.822400	1.660330
-3.467010	5.822580	1.661780
-3.467180	5.822890	1.663270
-3.467310	5.823140	1.664750
-3.467580	5.823620	1.666280
-3.467960	5.824290	1.667880
-3.468340	5.824950	1.669470
-3.468710	5.825590	1.671060
-3.469070	5.826230	1.672640
-3.469480	5.826940	1.674250
-3.469970	5.827790	1.675900
-3.470590	5.828850	1.677610
-3.471240	5.829970	1.679330
-3.472080	5.831410	1.681150
-3.472970	5.832930	1.682990
-3.473810	5.834350	1.684810
-3.474940	5.836270	1.686770
-3.476110	5.838260	1.688750
-3.477820	5.841170	1.691000
-3.506810	5.890650	1.603880
-3.500780	5.880540	1.602540
-3.493400	5.868180	1.600580
-3.489600	5.861810	1.600240
-3.486710	5.856990	1.600330
-3.485360	5.854750	1.601120
-3.483920	5.852360	1.601870
-3.482320	5.849690	1.602540
-3.481390	5.848160	1.603520
-3.480200	5.846180	1.604370
-3.479380	5.844830	1.605410
-3.478410	5.843220	1.606360
-3.477230	5.841270	1.607230
-3.476720	5.840430	1.608400
-3.475840	5.838990	1.609400
-3.475160	5.837860	1.610480
-3.474560	5.836890	1.611610
-3.473970	5.835910	1.612740
-3.473180	5.834610	1.613780
-3.472640	5.833730	1.614940
-3.472100	5.832850	1.616090
-3.471560	5.831970	1.617250
-3.471000	5.831060	1.618390
-3.470500	5.830240	1.619560
-3.470100	5.829590	1.620780
-3.469720	5.828970	1.622010
-3.469170	5.828090	1.623160
-3.468800	5.827490	1.624390
-3.468430	5.826890	1.625630
-3.468140	5.826420	1.626900
-3.467840	5.825940	1.628160
-3.467500	5.825400	1.629410
-3.467240	5.824990	1.630690
-3.466910	5.824460	1.631950
-3.466660	5.824060	1.633230
-3.466470	5.823760	1.634550
-3.466250	5.823420	1.635850
-3.466090	5.823180	1.637180
-3.465910	5.822910	1.638500
-3.465740	5.822640	1.639830
-3.465650	5.822510	1.641190
-3.465500	5.822290	1.642530
-3.465320	5.822000	1.643850
-3.465350	5.822090	1.645270
-3.465210	5.821870	1.646610
-3.465270	5.822000	1.648040
-3.465160	5.821830	1.649400
-3.465220	5.821960	1.650830
-3.465210	5.821970	1.652230
-3.465290	5.822140	1.653680
-3.465270	5.822120	1.655080
-3.465280	5.822170	1.656490
-3.465530	5.822610	1.658020
-3.465690	5.822900	1.659500
-3.465720	5.822970	1.660920
-3.465950	5.823380	1.662440
-3.466170	5.823780	1.663960
-3.466390	5.824170	1.665470
-3.466760	5.824820	1.667060
-3.467020	5.825280	1.668590
-3.467290	5.825760	1.670130
-3.467780	5.826610	1.671780
-3.468230	5.827390	1.673410
-3.468770	5.828320	1.675080
-3.469220	5.829110	1.676710
-3.469770	5.830050	1.678390
-3.470600	5.831470	1.680210
-3.471420	5.832870	1.682010
-3.472190	5.834200	1.683800
-3.473230	5.835970	1.685720
-3.474430	5.838010	1.687720
-3.475820	5.840360	1.689800
-3.477970	5.844000	1.692260
-3.504950	5.890090	1.603820
-3.499240	5.880520	1.602620
-3.491940	5.868290	1.600690
-3.488260	5.862120	1.600410
-3.486050	5.858430	1.600810
-3.483840	5.854750	1.601200
-3.482660	5.852800	1.602070
-3.481240	5.850430	1.602830
-3.480130	5.848580	1.603720
-3.478950	5.846630	1.604590
-3.477980	5.845010	1.605550
-3.477180	5.843700	1.606590
-3.475380	5.840730	1.608570
-3.474570	5.839390	1.609600
-3.473930	5.838340	1.610710
-3.473370	5.837430	1.611860
-3.472600	5.836160	1.612910
-3.472100	5.835350	1.614090
-3.471450	5.834270	1.615190
-3.470840	5.833270	1.616310
-3.470450	5.832660	1.617540
-3.469860	5.831690	1.618670
-3.469470	5.831070	1.619890
-3.468880	5.830090	1.621020
-3.468560	5.829580	1.622280
-3.468150	5.828930	1.623490
-3.467760	5.828290	1.624720
-3.467420	5.827750	1.625960
-3.467050	5.827170	1.627200
-3.466740	5.826680	1.628460
-3.466380	5.826090	1.629700
-3.466020	5.825510	1.630930
-3.465970	5.825450	1.632320
-3.465650	5.824930	1.633570
-3.465430	5.824590	1.634870
-3.465150	5.824140	1.636140
-3.465020	5.823950	1.637490
-3.464840	5.823670	1.638810
-3.464670	5.823410	1.640140
-3.464580	5.823290	1.641500
-3.464410	5.823030	1.642820
-3.464360	5.822960	1.644210
-3.464200	5.822710	1.645530
-3.464260	5.822830	1.646970
-3.464220	5.822790	1.648350
-3.464060	5.822550	1.649690
-3.464190	5.822780	1.651150
-3.464130	5.822690	1.652530
-3.464270	5.822950	1.654000
-3.464340	5.823090	1.655440
-3.464390	5.823200	1.656870
-3.464530	5.823470	1.658350
-3.464700	5.823780	1.659840
-3.464770	5.823920	1.661280
-3.465000	5.824330	1.662800
-3.465440	5.825090	1.664410
-3.465440	5.825120	1.665820
-3.465870	5.825870	1.667440
-3.466120	5.826310	1.668970
-3.466570	5.827100	1.670600
-3.466970	5.827780	1.672190
-3.467200	5.828190	1.673720
-3.467910	5.829420	1.675470
-3.468270	5.830050	1.677060
-3.468970	5.831240	1.678810
-3.469790	5.832640	1.680620
-3.470520	5.833900	1.682390
-3.471560	5.835670	1.684300
-3.472700	5.837610	1.686270
-3.473830	5.839540	1.688240
-3.475370	5.842160	1.690400
-3.478490	5.847410	1.693330
-3.503330	5.889950	1.603700
-3.497920	5.880890	1.602640
-3.490690	5.868760	1.600740
-3.486930	5.862470	1.600430
-3.484660	5.858700	1.600800
-3.482950	5.855840	1.601420
-3.481250	5.853030	1.602050
-3.480230	5.851330	1.602980
-3.478960	5.849220	1.603810
-3.477950	5.847570	1.604750
-3.476820	5.845690	1.605640
-3.476020	5.844360	1.606670
-3.475090	5.842810	1.607650
-3.474280	5.841490	1.608680
-3.473420	5.840050	1.609690
-3.472930	5.839260	1.610870
-3.472220	5.838090	1.611950
-3.471680	5.837200	1.613100
-3.471000	5.836080	1.614190
-3.470400	5.835090	1.615310
-3.469860	5.834210	1.616470
-3.469260	5.833230	1.617590
-3.468780	5.832440	1.618780
-3.468320	5.831690	1.619970
-3.467830	5.830890	1.621150
-3.467510	5.830370	1.622400
-3.466650	5.828980	1.624820
-3.466270	5.828370	1.626050
-3.465990	5.827920	1.627320
-3.465730	5.827510	1.628610
-3.465400	5.826970	1.629860
-3.465180	5.826630	1.631160
-3.464800	5.826020	1.632390
-3.464680	5.825840	1.633740
-3.464370	5.825340	1.635000
-3.464170	5.825040	1.636310
-3.463960	5.824710	1.637620
-3.463820	5.824490	1.638960
-3.463710	5.824340	1.640310
-3.463670	5.824280	1.641700
-3.463480	5.823990	1.643010
-3.463370	5.823840	1.644370
-3.463330	5.823790	1.645760
-3.463230	5.823640	1.647120
-3.463190	5.823600	1.648500
-3.463200	5.823650	1.649920
-3.463110	5.823520	1.651280
-3.463140	5.823590	1.652700
-3.463280	5.823860	1.654180
-3.463320	5.823960	1.655600
-3.463480	5.824250	1.657090
-3.463620	5.824510	1.658560
-3.463720	5.824690	1.660020
-3.463940	5.825090	1.661530
-3.464140	5.825450	1.663040
-3.464450	5.826000	1.664590
-3.464580	5.826240	1.666060
-3.464840	5.826700	1.667600
-3.465190	5.827320	1.669180
-3.465550	5.827950	1.670760
-3.466020	5.828760	1.672390
-3.466400	5.829420	1.673990
-3.466940	5.830350	1.675660
-3.467510	5.831330	1.677340
-3.468250	5.832600	1.679110
-3.468820	5.833590	1.680800
-3.469830	5.835320	1.682700
-3.470860	5.837070	1.684620
-3.471880	5.838810	1.686520
-3.473090	5.840860	1.688520
-3.475000	5.844100	1.690870
-3.501960	5.890330	1.604140
-3.495260	5.879100	1.602480
-3.488680	5.868060	1.600880
-3.485380	5.862530	1.600780
-3.483210	5.858900	1.601190
-3.481610	5.856240	1.601870
-3.479980	5.853520	1.602520
-3.478660	5.851330	1.603320
-3.477590	5.849560	1.604240
-3.476660	5.848010	1.605220
-3.475560	5.846200	1.606120
-3.474660	5.844710	1.607110
-3.473830	5.843320	1.608130
-3.473120	5.842150	1.609210
-3.472350	5.840900	1.610260
-3.471580	5.839610	1.611300
-3.471090	5.838810	1.612480
-3.470200	5.837340	1.613480
-3.469640	5.836430	1.614630
-3.469090	5.835530	1.615780
-3.468690	5.834890	1.617000
-3.468000	5.833750	1.618080
-3.467490	5.832910	1.619250
-3.467090	5.832270	1.620470
-3.466820	5.831830	1.621750
-3.466200	5.830820	1.622870
-3.465910	5.830370	1.624140
-3.465490	5.829670	1.625340
-3.465190	5.829190	1.626610
-3.464840	5.828630	1.627850
-3.464450	5.828000	1.629080
-3.464250	5.827680	1.630380
-3.463970	5.827240	1.631660
-3.463680	5.826770	1.632930
-3.463430	5.826390	1.634220
-3.463210	5.826050	1.635520
-3.463000	5.825700	1.636820
-3.462870	5.825510	1.638170
-3.462700	5.825250	1.639500
-3.462600	5.825110	1.640860
-3.462450	5.824890	1.642190
-3.462410	5.824840	1.643580
-3.462350	5.824760	1.644960
-3.462280	5.824670	1.646330
-3.462180	5.824540	1.647690
-3.462150	5.824510	1.649080
-3.462090	5.824440	1.650460
-3.462230	5.824680	1.651930
-3.462180	5.824620	1.653320
-3.462340	5.824930	1.654800
-3.462340	5.824940	1.656210
-3.462560	5.825340	1.657730
-3.462580	5.825400	1.659140
-3.462750	5.825700	1.660630
-3.463030	5.826200	1.662180
-3.463140	5.826420	1.663640
-3.463440	5.826940	1.665190
-3.463750	5.827480	1.666750
-3.464030	5.827970	1.668290
-3.464380	5.828590	1.669870
-3.464730	5.829210	1.671460
-3.465200	5.830020	1.673090
-3.465520	5.830580	1.674650
-3.466460	5.832190	1.676520
-3.466910	5.832960	1.678150
-3.467370	5.833770	1.679790
-3.468470	5.835650	1.681730
-3.469190	5.836870	1.683490
-3.470220	5.838630	1.685400
-3.471560	5.840910	1.687470
