-4.469920	-6.733350	-1.592580
-4.469480	-6.732680	-1.589850
-4.468810	-6.731650	-1.587040
-4.468650	-6.731390	-1.584400
-4.468570	-6.731250	-1.581800
-4.468290	-6.730810	-1.579130
-4.468360	-6.730920	-1.576580
-4.468470	-6.731070	-1.574050
-4.468430	-6.730990	-1.571460
-4.468550	-6.731150	-1.568930
-4.469060	-6.731900	-1.566530
-4.469410	-6.732410	-1.564080
-4.469520	-6.732570	-1.561550
-4.470190	-6.733560	-1.559210
-4.471100	-6.734910	-1.556960
-4.471690	-6.735790	-1.554590
-4.472310	-6.736710	-1.552230
-4.473020	-6.737770	-1.549910
-4.473880	-6.739050	-1.547630
-4.475150	-6.740940	-1.545500
-4.476490	-6.742950	-1.543390
-4.477670	-6.744710	-1.541220
-4.479210	-6.747020	-1.539170
-4.480750	-6.749320	-1.537130
-4.482570	-6.752040	-1.535180
-4.485300	-6.756140	-1.533530
-4.489570	-6.762560	-1.532420
-4.496790	-6.773420	-1.532300
-4.475280	-6.737060	-1.614390
-4.478960	-6.742590	-1.613140
-4.477700	-6.740670	-1.610100
-4.475990	-6.738090	-1.606900
-4.474930	-6.736470	-1.603940
-4.473890	-6.734890	-1.600990
-4.472740	-6.733150	-1.598000
-4.471870	-6.731820	-1.595120
-4.471470	-6.731210	-1.592400
-4.470960	-6.730420	-1.589640
-4.470600	-6.729860	-1.586940
-4.470240	-6.729300	-1.584230
-4.470040	-6.728980	-1.581590
-4.470070	-6.729020	-1.579030
-4.469950	-6.728830	-1.576410
-4.469950	-6.728810	-1.573840
-4.469980	-6.728840	-1.571280
-4.470290	-6.729300	-1.568810
-4.470610	-6.729760	-1.566350
-4.470760	-6.729970	-1.563830
-4.471270	-6.730730	-1.561440
-4.471740	-6.731410	-1.559030
-4.472290	-6.732220	-1.556650
-4.472880	-6.733100	-1.554290
-4.473740	-6.734380	-1.552010
-4.474690	-6.735800	-1.549770
-4.475600	-6.737150	-1.547510
-4.476460	-6.738430	-1.545240
-4.477600	-6.740130	-1.543060
-4.479070	-6.742320	-1.540990
-4.480650	-6.744680	-1.538960
-4.482100	-6.746860	-1.536880
-4.483640	-6.749170	-1.534830
-4.485940	-6.752610	-1.533040
-4.489270	-6.757600	-1.531600
-4.495490	-6.766960	-1.531150
-4.479670	-6.739290	-1.615250
-4.480350	-6.740290	-1.612910
-4.478760	-6.737890	-1.609750
-4.477260	-6.735610	-1.606630
-4.476230	-6.734050	-1.603690
-4.475000	-6.732180	-1.600670
-4.474120	-6.730850	-1.597780
-4.473490	-6.729880	-1.594970
-4.472970	-6.729090	-1.592210
-4.472340	-6.728120	-1.589410
-4.472050	-6.727680	-1.586740
-4.471860	-6.727370	-1.584090
-4.471500	-6.726810	-1.581390
-4.471380	-6.726610	-1.578780
-4.471410	-6.726650	-1.576220
-4.471360	-6.726570	-1.573630
-4.471520	-6.726780	-1.571110
-4.471600	-6.726890	-1.568560
-4.472070	-6.727580	-1.566160
-4.472380	-6.728040	-1.563700
-4.472770	-6.728600	-1.561260
-4.473160	-6.729180	-1.558820
-4.473670	-6.729930	-1.556430
-4.474420	-6.731040	-1.554120
-4.475240	-6.732270	-1.551830
-4.476110	-6.733560	-1.549560
-4.477220	-6.735210	-1.547370
-4.478240	-6.736730	-1.545150
-4.479030	-6.737900	-1.542850
-4.480250	-6.739720	-1.540700
-4.481990	-6.742320	-1.538720
-4.483570	-6.744690	-1.536690
-4.485230	-6.747170	-1.534690
-4.487330	-6.750310	-1.532830
-4.490330	-6.754820	-1.531280
-4.495690	-6.762860	-1.530520
-4.504870	-6.776650	-1.531060
-4.482460	-6.738810	-1.615470
-4.481940	-6.738020	-1.612710
-4.480400	-6.735680	-1.609570
-4.478850	-6.733350	-1.606430
-4.477460	-6.731240	-1.603360
-4.476310	-6.729500	-1.600370
-4.475600	-6.728410	-1.597540
-4.475200	-6.727800	-1.594820
-4.474760	-6.727120	-1.592090
-4.474210	-6.726270	-1.589310
-4.473690	-6.725470	-1.586560
-4.473410	-6.725040	-1.583880
-4.473320	-6.724900	-1.581280
-4.473170	-6.724650	-1.578650
-4.473000	-6.724380	-1.576020
-4.473150	-6.724600	-1.573500
-4.473270	-6.724760	-1.570970
-4.473510	-6.725100	-1.568480
-4.473860	-6.725610	-1.566030
-4.474170	-6.726070	-1.563570
-4.474440	-6.726460	-1.561090
-4.475230	-6.727630	-1.558800
-4.475700	-6.728320	-1.556390
-4.476250	-6.729140	-1.554010
-4.477000	-6.730240	-1.551700
-4.477950	-6.731650	-1.549450
-4.478810	-6.732930	-1.547180
-4.479680	-6.734220	-1.544910
-4.480660	-6.735690	-1.542670
-4.481970	-6.737640	-1.540550
-4.483390	-6.739760	-1.538470
-4.484970	-6.742120	-1.536430
-4.486630	-6.744600	-1.534430
-4.488810	-6.747860	-1.532600
-4.491380	-6.751710	-1.530900
-4.496100	-6.758790	-1.529930
-4.504130	-6.770850	-1.530080
-4.478150	-6.727570	-1.615710
-4.484830	-6.737580	-1.615530
-4.483600	-6.735720	-1.612510
-4.481890	-6.733150	-1.609310
-4.480580	-6.731160	-1.606260
-4.479630	-6.729720	-1.603340
-4.478480	-6.727970	-1.600350
-4.477560	-6.726580	-1.597450
-4.477130	-6.725910	-1.594720
-4.476490	-6.724940	-1.591920
-4.476090	-6.724330	-1.589200
-4.475690	-6.723710	-1.586490
-4.475370	-6.723210	-1.583800
-4.475210	-6.722960	-1.581170
-4.475090	-6.722760	-1.578550
-4.475050	-6.722680	-1.575960
-4.475200	-6.722900	-1.573450
-4.475390	-6.723170	-1.570940
-4.475470	-6.723270	-1.568400
-4.475780	-6.723720	-1.565930
-4.476210	-6.724360	-1.563510
-4.476690	-6.725050	-1.561110
-4.477120	-6.725680	-1.558690
-4.477510	-6.726250	-1.556250
-4.478060	-6.727060	-1.553870
-4.478890	-6.728300	-1.551590
-4.479950	-6.729880	-1.549380
-4.480940	-6.731350	-1.547150
-4.481560	-6.732270	-1.544800
-4.482710	-6.733980	-1.542620
-4.484010	-6.735920	-1.540490
-4.485310	-6.737860	-1.538370
-4.486940	-6.740290	-1.536350
-4.488400	-6.742470	-1.534280
-4.490420	-6.745490	-1.532390
-4.493230	-6.749700	-1.530780
-4.497480	-6.756070	-1.529640
-4.504320	-6.766320	-1.529390
-4.484170	-6.732030	-1.617110
-4.486860	-6.736050	-1.615500
-4.485320	-6.733710	-1.612360
-4.484010	-6.731740	-1.609310
-4.482540	-6.729510	-1.606210
-4.481190	-6.727470	-1.603140
-4.480190	-6.725960	-1.600210
-4.479600	-6.725050	-1.597420
-4.478800	-6.723850	-1.594560
-4.478210	-6.722930	-1.591780
-4.477770	-6.722260	-1.589050
-4.477450	-6.721770	-1.586360
-4.477210	-6.721390	-1.583700
-4.477010	-6.721070	-1.581060
-4.477000	-6.721050	-1.578480
-4.476880	-6.720850	-1.575870
-4.477000	-6.721010	-1.573340
-4.477230	-6.721350	-1.570840
-4.477430	-6.721630	-1.568340
-4.477660	-6.721960	-1.565850
-4.478010	-6.722470	-1.563400
-4.478440	-6.723100	-1.560980
-4.478950	-6.723860	-1.558590
-4.479380	-6.724490	-1.556170
-4.480010	-6.725420	-1.553810
-4.480800	-6.726590	-1.551520
-4.481670	-6.727880	-1.549250
-4.482540	-6.729170	-1.546970
-4.483450	-6.730510	-1.544720
-4.484350	-6.731850	-1.542450
-4.485660	-6.733800	-1.540330
-4.487000	-6.735800	-1.538220
-4.488420	-6.737920	-1.536130
-4.490120	-6.740460	-1.534140
-4.492460	-6.743950	-1.532360
-4.494920	-6.747620	-1.530630
-4.498410	-6.752850	-1.529240
-4.504970	-6.762680	-1.528880
-4.514220	-6.776560	-1.529440
-4.486740	-6.731200	-1.617260
-4.489020	-6.734610	-1.615500
-4.487630	-6.732510	-1.612420
-4.485770	-6.729700	-1.609170
-4.484460	-6.727720	-1.606120
-4.483580	-6.726390	-1.603230
-4.482400	-6.724590	-1.600230
-4.481240	-6.722840	-1.597240
-4.480880	-6.722290	-1.594530
-4.480320	-6.721440	-1.591760
-4.479640	-6.720400	-1.588950
-4.479400	-6.720030	-1.586290
-4.479360	-6.719950	-1.583700
-4.479200	-6.719690	-1.581070
-4.479080	-6.719490	-1.578450
-4.478920	-6.719240	-1.575820
-4.479150	-6.719580	-1.573340
-4.479430	-6.719970	-1.570860
-4.479540	-6.720130	-1.568330
-4.479770	-6.720460	-1.565840
-4.480130	-6.720980	-1.563390
-4.480440	-6.721430	-1.560930
-4.481030	-6.722300	-1.558560
-4.481660	-6.723230	-1.556210
-4.482210	-6.724040	-1.553830
-4.482840	-6.724970	-1.551480
-4.483670	-6.726200	-1.549190
-4.484650	-6.727660	-1.546960
-4.485440	-6.728830	-1.544660
-4.486590	-6.730530	-1.542480
-4.487700	-6.732180	-1.540290
-4.489040	-6.734180	-1.538180
-4.490700	-6.736660	-1.536170
-4.492240	-6.738960	-1.534130
-4.494180	-6.741860	-1.532210
-4.496640	-6.745530	-1.530480
-4.499740	-6.750160	-1.528950
-4.505580	-6.758910	-1.528360
-4.514700	-6.772570	-1.528860
-4.488820	-6.729810	-1.617260
-4.490870	-6.732860	-1.615420
-4.489160	-6.730290	-1.612220
-4.487490	-6.727780	-1.609040
-4.486300	-6.725970	-1.606040
-4.485390	-6.724590	-1.603130
-4.484240	-6.722840	-1.600140
-4.483160	-6.721220	-1.597180
-4.482640	-6.720430	-1.594420
-4.482370	-6.720000	-1.591750
-4.481930	-6.719320	-1.589020
-4.481450	-6.718580	-1.586270
-4.481200	-6.718210	-1.583620
-4.480960	-6.717830	-1.580960
-4.480920	-6.717750	-1.578370
-4.480790	-6.717550	-1.575750
-4.480990	-6.717830	-1.573250
-4.481150	-6.718050	-1.570730
-4.481180	-6.718090	-1.568170
-4.481580	-6.718660	-1.565740
-4.482040	-6.719350	-1.563330
-4.482240	-6.719630	-1.560830
-4.482790	-6.720440	-1.558450
-4.483340	-6.721250	-1.556070
-4.484050	-6.722300	-1.553750
-4.484640	-6.723170	-1.551380
-4.485390	-6.724280	-1.549070
-4.486180	-6.725440	-1.546770
-4.487280	-6.727080	-1.544580
-4.488510	-6.728910	-1.542430
-4.489740	-6.730730	-1.540280
-4.490960	-6.732550	-1.538120
-4.492350	-6.734620	-1.536020
-4.493970	-6.737030	-1.534000
-4.495990	-6.740050	-1.532120
-4.498090	-6.743180	-1.530260
-4.501270	-6.747930	-1.528760
-4.507320	-6.756980	-1.528240
-4.516140	-6.770190	-1.528640
-4.490800	-6.728140	-1.617200
-4.492730	-6.731010	-1.615320
-4.491390	-6.728980	-1.612250
-4.489920	-6.726760	-1.609140
-4.488600	-6.724780	-1.606090
-4.487370	-6.722920	-1.603070
-4.486060	-6.720930	-1.600030
-4.485500	-6.720090	-1.597250
-4.485100	-6.719470	-1.594530
-4.484460	-6.718500	-1.591730
-4.483860	-6.717590	-1.588950
-4.483670	-6.717280	-1.586300
-4.483430	-6.716900	-1.583640
-4.483100	-6.716400	-1.580960
-4.483180	-6.716500	-1.578410
-4.483020	-6.716240	-1.575780
-4.483130	-6.716400	-1.573250
-4.483170	-6.716440	-1.570690
-4.483400	-6.716780	-1.568200
-4.483840	-6.717410	-1.565780
-4.484070	-6.717750	-1.563290
-4.484500	-6.718380	-1.560870
-4.484930	-6.719010	-1.558450
-4.485440	-6.719760	-1.556060
-4.486080	-6.720690	-1.553710
-4.486820	-6.721790	-1.551390
-4.487690	-6.723080	-1.549120
-4.488720	-6.724610	-1.546910
-4.489630	-6.725950	-1.544650
-4.490540	-6.727300	-1.542390
-4.491960	-6.729420	-1.540300
-4.493150	-6.731180	-1.538140
-4.494330	-6.732940	-1.535970
-4.496320	-6.735900	-1.534070
-4.498380	-6.738970	-1.532200
-4.500640	-6.742340	-1.530400
-4.503660	-6.746850	-1.528840
-4.509470	-6.755550	-1.528240
-4.519110	-6.769970	-1.528920
-4.492220	-6.725720	-1.616960
-4.494880	-6.729680	-1.615330
-4.493400	-6.727460	-1.612220
-4.491930	-6.725240	-1.609110
-4.490500	-6.723080	-1.606020
-4.489420	-6.721460	-1.603060
-4.488350	-6.719840	-1.600100
-4.487630	-6.718750	-1.597270
-4.487000	-6.717780	-1.594470
-4.486600	-6.717170	-1.591750
-4.486080	-6.716370	-1.588990
-4.485680	-6.715760	-1.586270
-4.485200	-6.715020	-1.583530
-4.484920	-6.714590	-1.580860
-4.484990	-6.714690	-1.578310
-4.485230	-6.715030	-1.575820
-4.485420	-6.715300	-1.573320
-4.485340	-6.715170	-1.570720
-4.485620	-6.715560	-1.568240
-4.485890	-6.715960	-1.565770
-4.486360	-6.716640	-1.563360
-4.486870	-6.717400	-1.560970
-4.487030	-6.717610	-1.558450
-4.487580	-6.718420	-1.556070
-4.488330	-6.719530	-1.553760
-4.489080	-6.720640	-1.551450
-4.489790	-6.721680	-1.549120
-4.490490	-6.722730	-1.546790
-4.491600	-6.724370	-1.544600
-4.492830	-6.726190	-1.542450
-4.493820	-6.727660	-1.540220
-4.495120	-6.729600	-1.538100
-4.497030	-6.732440	-1.536170
-4.498810	-6.735090	-1.534210
-4.500680	-6.737870	-1.532270
-4.502860	-6.741120	-1.530440
-4.506760	-6.746940	-1.529180
-4.513690	-6.757300	-1.528950
-4.523490	-6.771970	-1.529690
-4.494360	-6.724380	-1.616970
-4.497650	-6.729290	-1.615570
-4.495780	-6.726470	-1.612320
-4.494070	-6.723900	-1.609130
-4.492990	-6.722280	-1.606160
-4.491720	-6.720360	-1.603130
-4.490520	-6.718550	-1.600130
-4.489930	-6.717650	-1.597340
-4.489450	-6.716920	-1.594590
-4.488810	-6.715950	-1.591790
-4.488290	-6.715150	-1.589030
-4.488050	-6.714780	-1.586370
-4.487810	-6.714400	-1.583710
-4.487290	-6.713610	-1.580960
-4.487360	-6.713700	-1.578410
-4.487720	-6.714220	-1.575960
-4.487600	-6.714030	-1.573350
-4.487630	-6.714060	-1.570790
-4.487820	-6.714330	-1.568280
-4.488060	-6.714670	-1.565800
-4.488370	-6.715120	-1.563330
-4.488880	-6.715880	-1.560940
-4.489280	-6.716450	-1.558510
-4.489870	-6.717320	-1.556140
-4.490620	-6.718420	-1.553830
-4.491130	-6.719180	-1.551430
-4.492000	-6.720460	-1.549160
-4.493230	-6.722280	-1.547010
-4.494180	-6.723690	-1.544770
-4.495010	-6.724910	-1.542480
-4.496070	-6.726500	-1.540280
-4.497540	-6.728680	-1.538210
-4.499170	-6.731090	-1.536190
-4.500910	-6.733690	-1.534210
-4.502900	-6.736640	-1.532310
-4.505240	-6.740130	-1.530530
-4.508820	-6.745480	-1.529170
-4.516630	-6.757150	-1.529240
-4.526480	-6.771870	-1.529980
-4.494450	-6.719990	-1.616250
-4.499470	-6.727470	-1.615470
-4.498350	-6.725790	-1.612490
-4.496560	-6.723100	-1.609270
-4.495370	-6.721290	-1.606260
-4.494170	-6.719500	-1.603260
-4.493130	-6.717930	-1.600310
-4.492380	-6.716780	-1.597460
-4.491660	-6.715700	-1.594640
-4.491100	-6.714840	-1.591860
-4.490740	-6.714290	-1.589160
-4.490180	-6.713440	-1.586390
-4.490100	-6.713300	-1.583780
-4.489980	-6.713110	-1.581170
-4.489740	-6.712730	-1.578510
-4.489610	-6.712520	-1.575890
-4.489810	-6.712810	-1.573390
-4.490160	-6.713320	-1.570940
-4.490280	-6.713470	-1.568410
-4.490350	-6.713580	-1.565870
-4.490910	-6.714390	-1.563490
-4.491180	-6.714780	-1.561010
-4.491570	-6.715350	-1.558580
-4.492120	-6.716160	-1.556200
-4.492990	-6.717450	-1.553930
-4.493660	-6.718440	-1.551590
-4.494450	-6.719600	-1.549290
-4.495280	-6.720830	-1.547000
-4.496190	-6.722170	-1.544740
-4.497460	-6.724050	-1.542610
-4.498610	-6.725760	-1.540430
-4.499800	-6.727510	-1.538260
-4.501380	-6.729870	-1.536230
-4.503130	-6.732470	-1.534250
-4.505110	-6.735420	-1.532350
-4.507900	-6.739570	-1.530720
-4.512600	-6.746580	-1.529740
-4.520300	-6.758070	-1.529760
-4.528750	-6.770700	-1.530040
-4.485890	-6.702450	-1.612390
-4.501820	-6.726240	-1.615530
-4.500980	-6.724970	-1.612650
-4.499430	-6.722640	-1.609510
-4.498000	-6.720490	-1.606420
-4.496840	-6.718740	-1.603430
-4.495650	-6.716940	-1.600430
-4.494650	-6.715440	-1.597490
-4.493850	-6.714230	-1.594640
-4.493530	-6.713740	-1.591950
-4.493130	-6.713130	-1.589230
-4.492890	-6.712750	-1.586570
-4.492490	-6.712130	-1.583850
-4.492330	-6.711880	-1.581220
-4.492160	-6.711620	-1.578590
-4.492280	-6.711780	-1.576060
-4.492400	-6.711940	-1.573530
-4.492390	-6.711920	-1.570960
-4.492590	-6.712190	-1.568450
-4.493100	-6.712940	-1.566060
-4.493220	-6.713100	-1.563530
-4.493490	-6.713490	-1.561050
-4.494040	-6.714300	-1.558670
-4.494550	-6.715050	-1.556280
-4.495190	-6.715980	-1.553930
-4.496100	-6.717330	-1.551670
-4.497010	-6.718670	-1.549410
-4.497870	-6.719950	-1.547140
-4.498870	-6.721420	-1.544910
-4.499930	-6.723000	-1.542700
-4.501000	-6.724580	-1.540490
-4.502630	-6.727000	-1.538480
-4.504180	-6.729300	-1.536430
-4.505970	-6.731950	-1.534470
-4.507950	-6.734900	-1.532570
-4.510500	-6.738700	-1.530860
-4.516000	-6.746900	-1.530140
-4.524660	-6.759820	-1.530490
-4.532320	-6.771240	-1.530500
-4.503860	-6.724440	-1.615460
-4.503860	-6.724430	-1.612880
-4.502310	-6.722100	-1.609740
-4.500640	-6.719590	-1.606560
-4.499480	-6.717850	-1.603570
-4.498440	-6.716280	-1.600620
-4.497280	-6.714540	-1.597640
-4.496530	-6.713390	-1.594790
-4.496130	-6.712780	-1.592070
-4.495650	-6.712050	-1.589330
-4.495250	-6.711440	-1.586610
-4.495200	-6.711350	-1.584020
-4.495120	-6.711210	-1.581420
-4.494960	-6.710960	-1.578790
-4.494910	-6.710880	-1.576200
-4.494790	-6.710680	-1.573590
-4.494910	-6.710840	-1.571050
-4.495180	-6.711230	-1.568580
-4.495490	-6.711680	-1.566120
-4.495770	-6.712080	-1.563640
-4.496240	-6.712770	-1.561230
-4.496830	-6.713640	-1.558870
-4.497350	-6.714390	-1.556470
-4.497900	-6.715200	-1.554090
-4.498810	-6.716540	-1.551830
-4.499640	-6.717770	-1.549550
-4.500470	-6.719000	-1.547260
-4.501460	-6.720460	-1.545030
-4.502490	-6.721980	-1.542810
-4.503600	-6.723620	-1.540620
-4.505230	-6.726040	-1.538600
-4.507060	-6.728750	-1.536650
-4.508680	-6.731170	-1.534630
-4.510630	-6.734060	-1.532720
-4.514180	-6.739340	-1.531350
-4.522040	-6.751070	-1.531430
-4.530230	-6.763270	-1.531620
-4.535610	-6.771290	-1.530850
-4.504670	-6.721130	-1.615000
-4.506110	-6.723260	-1.612930
-4.504840	-6.721350	-1.609900
-4.503290	-6.719010	-1.606760
-4.502010	-6.717100	-1.603730
-4.501210	-6.715890	-1.600870
-4.500410	-6.714680	-1.598000
-4.499540	-6.713360	-1.595120
-4.498810	-6.712270	-1.592280
-4.498330	-6.711530	-1.589540
-4.497900	-6.710870	-1.586810
-4.497570	-6.710370	-1.584120
-4.497450	-6.710170	-1.581500
-4.497210	-6.709800	-1.578850
-4.497120	-6.709650	-1.576240
-4.497400	-6.710050	-1.573770
-4.497550	-6.710270	-1.571250
-4.497670	-6.710430	-1.568720
-4.497980	-6.710880	-1.566250
-4.498300	-6.711340	-1.563790
-4.498610	-6.711790	-1.561330
-4.499250	-6.712720	-1.558980
-4.499680	-6.713350	-1.556550
-4.500350	-6.714330	-1.554220
-4.501100	-6.715440	-1.551900
-4.502010	-6.716790	-1.549650
-4.502960	-6.718190	-1.547400
-4.504030	-6.719770	-1.545190
-4.505060	-6.721290	-1.542970
-4.506450	-6.723350	-1.540880
-4.508040	-6.725710	-1.538850
-4.509430	-6.727770	-1.536750
-4.511180	-6.730360	-1.534770
-4.513690	-6.734090	-1.533040
-4.518680	-6.741510	-1.532160
-4.527340	-6.754430	-1.532510
-4.534610	-6.765250	-1.532380
-4.538400	-6.770890	-1.531080
-4.500640	-6.710660	-1.612820
-4.507780	-6.721290	-1.612790
-4.507620	-6.721040	-1.610150
-4.506070	-6.718710	-1.607020
-4.504990	-6.717080	-1.604050
-4.503750	-6.715220	-1.601040
-4.502590	-6.713480	-1.598050
-4.502110	-6.712750	-1.595300
-4.501470	-6.711780	-1.592500
-4.500830	-6.710810	-1.589700
-4.500350	-6.710080	-1.586950
-4.500110	-6.709710	-1.584290
-4.500070	-6.709620	-1.581700
-4.499910	-6.709370	-1.579070
-4.499540	-6.708810	-1.576370
-4.499700	-6.709030	-1.573850
-4.499930	-6.709370	-1.571360
-4.500090	-6.709580	-1.568840
-4.500520	-6.710220	-1.566420
-4.500960	-6.710850	-1.564000
-4.501110	-6.711060	-1.561480
-4.501380	-6.711450	-1.559000
-4.502220	-6.712680	-1.556720
-4.503090	-6.713960	-1.554450
-4.503760	-6.714960	-1.552110
-4.504790	-6.716470	-1.549890
-4.505780	-6.717940	-1.547660
-4.506700	-6.719280	-1.545400
-4.507730	-6.720810	-1.543180
-4.508950	-6.722620	-1.541030
-4.510550	-6.724980	-1.539000
-4.512180	-6.727390	-1.536980
-4.514120	-6.730290	-1.535070
-4.516880	-6.734380	-1.533420
-4.522990	-6.743470	-1.532920
-4.532250	-6.757270	-1.533470
-4.538360	-6.766370	-1.532950
-4.540920	-6.770150	-1.531220
-4.508230	-6.717530	-1.612220
-4.509910	-6.720030	-1.610240
-4.508710	-6.718220	-1.607230
-4.507550	-6.716480	-1.604240
-4.506480	-6.714870	-1.601280
-4.505480	-6.713360	-1.598350
-4.504880	-6.712450	-1.595560
-4.504280	-6.711540	-1.592770
-4.503520	-6.710400	-1.589920
-4.502830	-6.709360	-1.587100
-4.502590	-6.708990	-1.584440
-4.502550	-6.708910	-1.581860
-4.502550	-6.708900	-1.579280
-4.502350	-6.708580	-1.576640
-4.502300	-6.708490	-1.574050
-4.502740	-6.709130	-1.571630
-4.502890	-6.709350	-1.569110
-4.503090	-6.709620	-1.566600
-4.503400	-6.710070	-1.564140
-4.503750	-6.710590	-1.561690
-4.504350	-6.711460	-1.559320
-4.504940	-6.712320	-1.556960
-4.505570	-6.713250	-1.554600
-4.506530	-6.714650	-1.552360
-4.507440	-6.716000	-1.550100
-4.508470	-6.717520	-1.547880
-4.509460	-6.718990	-1.545650
-4.510450	-6.720450	-1.543410
-4.511600	-6.722150	-1.541230
-4.513670	-6.725220	-1.539370
-4.515590	-6.728050	-1.537440
-4.517580	-6.731000	-1.535540
-4.521530	-6.736880	-1.534310
-4.529040	-6.748060	-1.534270
-4.537080	-6.760010	-1.534410
-4.541070	-6.765940	-1.533170
-4.543060	-6.768890	-1.531250
-4.502930	-6.705050	-1.609570
-4.511910	-6.718420	-1.610200
-4.512200	-6.718820	-1.607720
-4.511040	-6.717090	-1.604720
-4.509480	-6.714740	-1.601590
-4.508480	-6.713240	-1.598660
-4.507600	-6.711920	-1.595770
-4.506960	-6.710950	-1.592960
-4.506440	-6.710160	-1.590200
-4.505840	-6.709250	-1.587410
-4.505600	-6.708870	-1.584750
-4.505470	-6.708680	-1.582140
-4.505350	-6.708480	-1.579520
-4.505310	-6.708400	-1.576930
-4.505300	-6.708380	-1.574350
-4.505380	-6.708480	-1.571810
-4.505540	-6.708700	-1.569290
-4.505850	-6.709150	-1.566830
-4.506090	-6.709480	-1.564330
-4.506640	-6.710290	-1.561950
-4.507240	-6.711170	-1.559590
-4.507910	-6.712150	-1.557250
-4.508580	-6.713140	-1.554910
-4.509170	-6.714000	-1.552540
-4.510010	-6.715230	-1.550250
-4.511240	-6.717050	-1.548100
-4.512390	-6.718750	-1.545920
-4.513660	-6.720630	-1.543780
-4.515130	-6.722810	-1.541710
-4.516810	-6.725280	-1.539710
-4.518880	-6.728350	-1.537840
-4.521750	-6.732610	-1.536240
-4.527950	-6.741820	-1.535760
-4.536230	-6.754140	-1.535980
-4.542300	-6.763160	-1.535450
-4.544130	-6.765880	-1.533480
-4.545320	-6.767630	-1.531290
-4.549190	-6.773380	-1.530000
-4.508980	-6.709280	-1.608360
-4.515720	-6.719300	-1.608190
-4.514600	-6.717620	-1.605210
-4.513480	-6.715940	-1.602230
-4.512330	-6.714200	-1.599240
-4.511170	-6.712460	-1.596250
-4.510320	-6.711190	-1.593370
-4.509800	-6.710410	-1.590610
-4.509480	-6.709910	-1.587920
-4.509120	-6.709360	-1.585220
-4.508720	-6.708740	-1.582500
-4.508470	-6.708370	-1.579840
-4.508470	-6.708350	-1.577270
-4.508470	-6.708330	-1.574690
-4.508540	-6.708430	-1.572140
-4.508580	-6.708460	-1.569580
-4.508970	-6.709030	-1.567140
-4.509530	-6.709840	-1.564760
-4.509850	-6.710300	-1.562300
-4.510400	-6.711110	-1.559920
-4.510950	-6.711920	-1.557540
-4.511590	-6.712850	-1.555180
-4.512740	-6.714550	-1.553010
-4.513330	-6.715410	-1.550640
-4.514330	-6.716880	-1.548400
-4.515720	-6.718940	-1.546310
-4.516990	-6.720810	-1.544170
-4.518340	-6.722810	-1.542050
-4.520460	-6.725940	-1.540200
-4.523290	-6.730140	-1.538590
-4.528090	-6.737270	-1.537640
-4.536410	-6.749630	-1.537880
-4.543490	-6.760160	-1.537690
-4.546200	-6.764170	-1.536020
-4.546760	-6.764980	-1.533620
-4.547460	-6.766020	-1.531270
-4.550940	-6.771180	-1.529840
-4.522790	-6.725010	-1.609910
-4.519590	-6.720240	-1.606190
-4.517260	-6.716770	-1.602780
-4.515830	-6.714610	-1.599690
-4.514790	-6.713060	-1.596740
-4.513910	-6.711730	-1.593850
-4.513180	-6.710640	-1.591020
-4.512580	-6.709730	-1.588230
-4.512220	-6.709180	-1.585530
-4.511940	-6.708740	-1.582850
-4.511730	-6.708420	-1.580210
-4.511650	-6.708280	-1.577600
-4.511570	-6.708150	-1.575000
-4.511560	-6.708120	-1.572420
-4.511720	-6.708350	-1.569900
-4.512190	-6.709030	-1.567490
-4.512670	-6.709730	-1.565080
-4.513020	-6.710240	-1.562630
-4.513580	-6.711040	-1.560250
-4.514050	-6.711740	-1.557840
-4.515010	-6.713140	-1.555600
-4.516000	-6.714610	-1.553360
-4.516830	-6.715830	-1.551080
-4.517790	-6.717240	-1.548830
-4.519220	-6.719350	-1.546750
-4.520610	-6.721400	-1.544650
-4.522250	-6.723820	-1.542630
-4.524480	-6.727130	-1.540810
-4.528440	-6.732990	-1.539580
-4.536200	-6.744520	-1.539640
-4.544370	-6.756650	-1.539820
-4.547930	-6.761930	-1.538440
-4.548840	-6.763270	-1.536160
-4.548990	-6.763480	-1.533620
-4.549820	-6.764690	-1.531310
-4.553650	-6.770380	-1.530000
-4.540770	-6.747050	-1.618130
-4.538610	-6.743830	-1.614770
-4.530490	-6.731740	-1.609290
-4.523520	-6.721380	-1.604230
-4.519920	-6.716010	-1.600370
-4.518520	-6.713910	-1.597300
-4.517480	-6.712350	-1.594350
-4.516600	-6.711030	-1.591460
-4.516120	-6.710300	-1.588710
-4.515790	-6.709800	-1.586020
-4.515230	-6.708950	-1.583250
-4.514990	-6.708580	-1.580590
-4.514980	-6.708550	-1.578010
-4.514980	-6.708530	-1.575430
-4.515130	-6.708750	-1.572910
-4.515170	-6.708780	-1.570350
-4.515290	-6.708940	-1.567810
-4.515800	-6.709690	-1.565420
-4.516280	-6.710390	-1.563010
-4.516910	-6.711310	-1.560650
-4.517470	-6.712130	-1.558270
-4.518380	-6.713470	-1.556010
-4.519500	-6.715110	-1.553820
-4.520610	-6.716750	-1.551630
-4.521720	-6.718390	-1.549430
-4.523080	-6.720390	-1.547320
-4.524750	-6.722860	-1.545320
-4.526990	-6.726170	-1.543500
-4.531390	-6.732700	-1.542420
-4.538360	-6.743030	-1.542210
-4.545810	-6.754090	-1.542150
-4.549730	-6.759890	-1.540890
-4.551000	-6.761760	-1.538730
-4.551110	-6.761910	-1.536180
-4.551060	-6.761830	-1.533580
-4.552130	-6.763400	-1.531350
-4.555930	-6.769030	-1.530030
-4.548130	-6.753410	-1.620000
-4.548770	-6.754350	-1.617630
-4.543730	-6.746850	-1.613240
-4.534440	-6.733040	-1.607350
-4.526670	-6.721490	-1.602020
-4.522870	-6.715820	-1.598090
-4.521270	-6.713430	-1.594940
-4.520340	-6.712040	-1.592040
-4.519780	-6.711200	-1.589260
-4.519260	-6.710410	-1.586500
-4.518820	-6.709730	-1.583770
-4.518610	-6.709410	-1.581120
-4.518250	-6.708860	-1.578410
-4.518210	-6.708780	-1.575820
-4.518400	-6.709060	-1.573310
-4.518600	-6.709340	-1.570810
-4.518880	-6.709730	-1.568330
-4.519110	-6.710060	-1.565830
-4.519590	-6.710760	-1.563420
-4.520180	-6.711620	-1.561050
-4.521020	-6.712850	-1.558770
-4.521850	-6.714070	-1.556480
-4.522730	-6.715360	-1.554210
-4.524120	-6.717420	-1.552110
-4.525320	-6.719180	-1.549940
-4.526710	-6.721230	-1.547840
-4.529030	-6.724660	-1.546060
-4.532910	-6.730410	-1.544800
-4.539680	-6.740440	-1.544520
-4.546930	-6.751200	-1.544400
-4.551460	-6.757900	-1.543350
-4.552850	-6.759950	-1.541230
-4.553160	-6.760400	-1.538750
-4.553190	-6.760430	-1.536170
-4.553380	-6.760690	-1.533640
-4.554130	-6.761790	-1.531310
-4.557250	-6.766410	-1.529760
-4.551910	-6.754590	-1.620610
-4.553520	-6.756950	-1.618580
-4.551720	-6.754270	-1.615350
-4.546430	-6.746410	-1.610880
-4.538180	-6.734150	-1.605360
-4.530840	-6.723250	-1.600180
-4.526320	-6.716520	-1.596000
-4.524390	-6.713640	-1.592740
-4.523430	-6.712200	-1.589820
-4.522910	-6.711410	-1.587060
-4.522380	-6.710620	-1.584300
-4.521980	-6.710010	-1.581580
-4.521860	-6.709810	-1.578960
-4.521970	-6.709960	-1.576420
-4.521970	-6.709940	-1.573850
-4.522400	-6.710570	-1.571420
-4.522840	-6.711210	-1.569000
-4.522880	-6.711250	-1.566430
-4.523400	-6.712000	-1.564030
-4.524030	-6.712920	-1.561680
-4.524620	-6.713790	-1.559310
-4.525460	-6.715020	-1.557020
-4.526580	-6.716660	-1.554830
-4.528170	-6.719010	-1.552800
-4.529610	-6.721130	-1.550710
-4.531890	-6.724500	-1.548910
-4.536410	-6.731200	-1.547880
-4.542950	-6.740880	-1.547520
-4.550240	-6.751690	-1.547420
-4.553800	-6.756960	-1.546040
-4.554920	-6.758600	-1.543830
-4.555030	-6.758740	-1.541270
-4.554980	-6.758660	-1.538670
-4.555050	-6.758740	-1.536100
-4.555120	-6.758830	-1.533530
-4.555990	-6.760110	-1.531240
-4.559670	-6.765560	-1.529880
-4.554050	-6.753140	-1.620610
-4.556340	-6.756520	-1.618820
-4.556140	-6.756210	-1.616160
-4.554260	-6.753410	-1.612890
-4.550410	-6.747690	-1.608930
-4.544400	-6.738760	-1.604220
-4.536700	-6.727330	-1.598910
-4.531010	-6.718880	-1.594320
-4.528440	-6.715050	-1.590840
-4.527390	-6.713480	-1.587890
-4.526550	-6.712220	-1.585020
-4.526110	-6.711550	-1.582280
-4.525950	-6.711290	-1.579650
-4.525740	-6.710970	-1.577000
-4.525900	-6.711190	-1.574470
-4.525740	-6.710930	-1.571840
-4.526210	-6.711620	-1.569430
-4.526690	-6.712320	-1.567020
-4.527080	-6.712890	-1.564580
-4.527800	-6.713930	-1.562240
-4.528720	-6.715280	-1.559980
-4.529710	-6.716740	-1.557750
-4.531230	-6.718970	-1.555690
-4.533030	-6.721630	-1.553730
-4.535950	-6.725950	-1.552150
-4.540400	-6.732530	-1.551090
-4.546620	-6.741730	-1.550630
-4.552750	-6.750810	-1.550130
-4.556150	-6.755840	-1.548700
-4.557270	-6.757480	-1.546490
-4.557460	-6.757750	-1.543960
-4.557370	-6.757600	-1.541340
-4.557280	-6.757450	-1.538720
-4.557310	-6.757480	-1.536140
-4.557580	-6.757860	-1.533640
-4.558210	-6.758780	-1.531270
-4.561450	-6.763580	-1.529760
-4.556600	-6.752290	-1.620750
-4.558570	-6.755190	-1.618850
-4.558980	-6.755770	-1.616400
-4.558620	-6.755230	-1.613670
-4.557780	-6.753970	-1.610780
-4.555450	-6.750510	-1.607360
-4.550240	-6.742770	-1.602930
-4.543380	-6.732590	-1.597920
-4.537080	-6.723240	-1.593120
-4.533670	-6.718170	-1.589340
-4.531860	-6.715470	-1.586130
-4.530500	-6.713440	-1.583070
-4.530050	-6.712760	-1.580330
-4.530130	-6.712860	-1.577780
-4.530120	-6.712840	-1.575200
-4.530120	-6.712820	-1.572620
-4.530520	-6.713390	-1.570180
-4.531030	-6.714140	-1.567780
-4.531630	-6.715010	-1.565410
-4.532470	-6.716240	-1.563120
-4.533630	-6.717940	-1.560940
-4.535300	-6.720410	-1.558940
-4.537750	-6.724020	-1.557190
-4.541680	-6.729820	-1.555960
-4.547330	-6.738190	-1.555310
-4.553190	-6.746850	-1.554730
-4.557240	-6.752840	-1.553520
-4.559030	-6.755480	-1.551540
-4.559190	-6.755700	-1.549000
-4.559300	-6.755850	-1.546450
-4.559570	-6.756230	-1.543950
-4.559520	-6.756150	-1.541340
-4.559390	-6.755940	-1.538710
-4.559580	-6.756200	-1.536180
-4.559770	-6.756470	-1.533660
-4.560480	-6.757510	-1.531310
-4.563970	-6.762660	-1.529880
-4.558130	-6.749870	-1.620520
-4.560820	-6.753840	-1.618880
-4.561380	-6.754660	-1.616480
-4.561390	-6.754650	-1.613880
-4.560990	-6.754050	-1.611150
-4.560630	-6.753500	-1.608420
-4.559550	-6.751890	-1.605440
-4.556900	-6.747950	-1.601910
-4.552370	-6.741220	-1.597730
-4.547070	-6.733360	-1.593280
-4.542610	-6.726740	-1.589130
-4.539480	-6.722080	-1.585450
-4.537350	-6.718920	-1.582130
-4.536140	-6.717110	-1.579120
-4.535860	-6.716680	-1.576440
-4.535970	-6.716840	-1.573900
-4.536090	-6.716990	-1.571360
-4.536690	-6.717860	-1.568990
-4.537970	-6.719750	-1.566850
-4.539650	-6.722210	-1.564850
-4.541770	-6.725350	-1.563000
-4.544900	-6.729960	-1.561490
-4.549590	-6.736900	-1.560520
-4.554930	-6.744790	-1.559760
-4.558740	-6.750410	-1.558470
-4.560740	-6.753360	-1.556560
-4.561380	-6.754290	-1.554190
-4.561610	-6.754620	-1.551680
-4.561720	-6.754760	-1.549120
-4.561790	-6.754860	-1.546560
-4.561620	-6.754590	-1.543910
-4.561490	-6.754380	-1.541270
-4.561560	-6.754470	-1.538710
-4.561670	-6.754620	-1.536160
-4.561820	-6.754830	-1.533620
-4.562780	-6.756220	-1.531350
-4.565820	-6.760710	-1.529780
-4.560360	-6.748360	-1.620520
-4.563170	-6.752510	-1.618920
-4.563500	-6.752980	-1.616440
-4.563460	-6.752900	-1.613830
-4.563380	-6.752770	-1.611200
-4.563260	-6.752580	-1.608560
-4.563350	-6.752690	-1.605990
-4.562910	-6.752020	-1.603240
-4.561660	-6.750170	-1.600210
-4.559980	-6.747660	-1.597020
-4.558050	-6.744790	-1.593750
-4.555400	-6.740850	-1.590230
-4.553070	-6.737390	-1.586830
-4.551140	-6.734520	-1.583570
-4.549810	-6.732530	-1.580520
-4.549120	-6.731510	-1.577690
-4.549680	-6.732320	-1.575300
-4.550800	-6.733960	-1.573100
-4.552240	-6.736080	-1.571010
-4.554690	-6.739680	-1.569270
-4.557380	-6.743650	-1.567600
-4.559940	-6.747430	-1.565890
-4.561950	-6.750380	-1.563990
-4.563270	-6.752320	-1.561850
-4.563670	-6.752890	-1.559390
-4.563860	-6.753160	-1.556870
-4.563890	-6.753190	-1.554280
-4.564000	-6.753350	-1.551730
-4.564030	-6.753380	-1.549150
-4.564150	-6.753530	-1.546600
-4.564100	-6.753440	-1.543990
-4.563770	-6.752940	-1.541290
-4.563640	-6.752730	-1.538650
-4.563740	-6.752870	-1.536100
-4.564060	-6.753320	-1.533620
-4.564970	-6.754660	-1.531330
-4.568050	-6.759200	-1.529780
-4.563220	-6.747810	-1.620750
-4.565310	-6.750890	-1.618900
-4.565550	-6.751240	-1.616380
-4.565640	-6.751350	-1.613810
-4.565840	-6.751630	-1.611290
-4.565970	-6.751800	-1.608730
-4.565850	-6.751610	-1.606090
-4.565810	-6.751530	-1.603480
-4.565690	-6.751340	-1.600840
-4.565290	-6.750740	-1.598100
-4.564960	-6.750240	-1.595390
-4.564770	-6.749930	-1.592730
-4.564160	-6.749020	-1.589920
-4.563710	-6.748350	-1.587170
-4.563310	-6.747740	-1.584440
-4.563270	-6.747670	-1.581830
-4.563830	-6.748480	-1.579430
-4.564190	-6.748990	-1.576960
-4.564460	-6.749380	-1.574460
-4.564940	-6.750080	-1.572030
-4.565540	-6.750940	-1.569650
-4.565860	-6.751400	-1.567160
-4.566170	-6.751850	-1.564680
-4.566170	-6.751830	-1.562080
-4.566200	-6.751860	-1.559500
-4.566200	-6.751840	-1.556910
-4.566350	-6.752050	-1.554370
-4.566300	-6.751960	-1.551760
-4.566130	-6.751700	-1.549110
-4.566240	-6.751850	-1.546560
-4.566360	-6.752000	-1.544000
-4.566220	-6.751790	-1.541370
-4.566170	-6.751700	-1.538760
-4.566130	-6.751620	-1.536160
-4.566400	-6.752000	-1.533660
-4.567070	-6.752980	-1.531290
-4.570600	-6.758180	-1.529880
-4.564810	-6.745430	-1.620540
-4.567310	-6.749110	-1.618820
-4.568030	-6.750160	-1.616480
-4.568040	-6.750150	-1.613880
-4.568120	-6.750270	-1.611320
-4.568250	-6.750430	-1.608760
-4.568090	-6.750180	-1.606110
-4.568050	-6.750110	-1.603500
-4.568010	-6.750030	-1.600880
-4.567850	-6.749780	-1.598230
-4.567970	-6.749950	-1.595680
-4.567970	-6.749930	-1.593080
-4.567970	-6.749910	-1.590480
-4.568050	-6.750020	-1.587910
-4.567960	-6.749880	-1.585290
-4.568120	-6.750100	-1.582750
-4.567960	-6.749840	-1.580100
-4.568000	-6.749880	-1.577520
-4.568230	-6.750210	-1.575000
-4.568230	-6.750190	-1.572410
-4.568260	-6.750230	-1.569830
-4.568420	-6.750440	-1.567290
-4.568410	-6.750420	-1.564690
-4.568410	-6.750400	-1.562100
-4.568280	-6.750200	-1.559460
-4.568310	-6.750230	-1.556880
-4.568390	-6.750330	-1.554310
-4.568460	-6.750420	-1.551740
-4.568330	-6.750210	-1.549110
-4.568320	-6.750180	-1.546520
-4.568390	-6.750270	-1.543950
-4.568420	-6.750300	-1.541370
-4.568330	-6.750160	-1.538750
-4.568440	-6.750300	-1.536190
-4.568550	-6.750450	-1.533640
-4.569340	-6.751610	-1.531320
-4.572880	-6.756810	-1.529910
-4.566920	-6.744010	-1.620540
-4.569610	-6.747980	-1.618900
-4.570020	-6.748570	-1.616440
-4.570020	-6.748550	-1.613840
-4.570110	-6.748660	-1.611270
-4.569990	-6.748470	-1.608630
-4.570030	-6.748520	-1.606050
-4.570350	-6.748980	-1.603560
-4.570470	-6.749150	-1.601010
-4.570310	-6.748900	-1.598360
-4.570310	-6.748880	-1.595760
-4.570190	-6.748680	-1.593120
-4.570150	-6.748610	-1.590510
-4.570230	-6.748710	-1.587940
-4.570430	-6.748990	-1.585420
-4.570470	-6.749030	-1.582830
-4.570300	-6.748770	-1.580180
-4.570220	-6.748640	-1.577560
-4.570260	-6.748680	-1.574980
-4.570210	-6.748590	-1.572370
-4.570330	-6.748750	-1.569810
-4.570360	-6.748780	-1.567230
-4.570390	-6.748820	-1.564650
-4.570470	-6.748920	-1.562080
-4.570540	-6.749010	-1.559510
-4.570700	-6.749220	-1.556970
-4.570410	-6.748780	-1.554280
-4.570440	-6.748810	-1.551700
-4.570680	-6.749150	-1.549190
-4.570740	-6.749230	-1.546620
-4.570580	-6.748970	-1.543980
-4.570450	-6.748760	-1.541340
-4.570390	-6.748670	-1.538730
-4.570540	-6.748880	-1.536190
-4.570650	-6.749020	-1.533640
-4.571610	-6.750420	-1.531370
-4.574860	-6.755200	-1.529870
-4.569220	-6.742890	-1.620610
-4.571630	-6.746440	-1.618870
-4.572160	-6.747200	-1.616450
-4.572330	-6.747430	-1.613910
-4.572290	-6.747350	-1.611300
-4.572250	-6.747290	-1.608690
-4.572170	-6.747150	-1.606060
-4.572380	-6.747440	-1.603540
-4.572580	-6.747720	-1.601010
-4.572540	-6.747650	-1.598400
-4.572460	-6.747520	-1.595770
-4.572460	-6.747500	-1.593180
-4.572530	-6.747600	-1.590610
-4.572610	-6.747700	-1.588040
-4.572490	-6.747500	-1.585400
-4.572370	-6.747310	-1.582760
-4.572330	-6.747230	-1.580150
-4.572360	-6.747270	-1.577570
-4.572520	-6.747490	-1.575030
-4.572550	-6.747520	-1.572450
-4.572390	-6.747270	-1.569800
-4.572510	-6.747430	-1.567250
-4.572580	-6.747520	-1.564680
-4.572610	-6.747550	-1.562100
-4.572690	-6.747650	-1.559530
-4.572640	-6.747560	-1.556920
-4.572390	-6.747180	-1.554240
-4.572340	-6.747100	-1.551640
-4.572700	-6.747600	-1.549160
-4.572850	-6.747810	-1.546620
-4.572720	-6.747600	-1.543990
-4.572750	-6.747630	-1.541410
-4.572660	-6.747490	-1.538790
-4.572610	-6.747390	-1.536180
-4.572840	-6.747720	-1.533670
-4.573670	-6.748940	-1.531360
-4.577170	-6.754080	-1.529940
-4.570950	-6.740850	-1.620470
-4.573770	-6.744990	-1.618870
-4.574340	-6.745810	-1.616470
-4.574220	-6.745620	-1.613830
-4.574500	-6.746030	-1.611330
-4.574390	-6.745840	-1.608690
-4.574270	-6.745650	-1.606050
-4.574510	-6.745990	-1.603540
-4.574510	-6.745970	-1.600940
-4.574630	-6.746140	-1.598380
-4.574430	-6.745820	-1.595720
-4.574390	-6.745750	-1.593110
-4.574470	-6.745850	-1.590540
-4.574590	-6.746010	-1.587980
-4.574590	-6.746000	-1.585390
-4.574420	-6.745750	-1.582740
-4.574460	-6.745780	-1.580150
-4.574540	-6.745880	-1.577580
-4.574570	-6.745920	-1.575000
-4.574690	-6.746080	-1.572450
-4.574480	-6.745750	-1.569780
-4.574600	-6.745910	-1.567230
-4.574750	-6.746130	-1.564690
-4.574750	-6.746100	-1.562100
-4.574780	-6.746140	-1.559510
-4.574810	-6.746170	-1.556930
-4.574690	-6.745970	-1.554300
-4.574960	-6.746360	-1.551800
-4.574880	-6.746220	-1.549180
-4.574540	-6.745710	-1.546470
-4.574610	-6.745800	-1.543910
-4.574650	-6.745830	-1.541330
-4.574510	-6.745620	-1.538690
-4.574740	-6.745950	-1.536180
-4.575010	-6.746330	-1.533680
-4.575850	-6.747540	-1.531370
-4.578940	-6.752090	-1.529820
-4.574040	-6.740570	-1.620770
-4.576060	-6.743520	-1.618880
-4.576420	-6.744050	-1.616410
-4.576390	-6.743980	-1.613800
-4.576350	-6.743910	-1.611190
-4.576600	-6.744260	-1.608680
-4.576680	-6.744360	-1.606110
-4.576800	-6.744520	-1.603550
-4.576680	-6.744330	-1.600910
-4.576520	-6.744080	-1.598260
-4.576760	-6.744420	-1.595750
-4.576800	-6.744460	-1.593160
-4.576840	-6.744500	-1.590580
-4.577000	-6.744720	-1.588040
-4.576710	-6.744290	-1.585350
-4.576870	-6.744510	-1.582800
-4.577030	-6.744730	-1.580260
-4.577070	-6.744770	-1.577680
-4.576990	-6.744640	-1.575060
-4.576900	-6.744490	-1.572440
-4.576770	-6.744290	-1.569800
-4.577010	-6.744620	-1.567290
-4.577210	-6.744900	-1.564760
-4.577080	-6.744700	-1.562120
-4.577110	-6.744730	-1.559540
-4.577310	-6.745000	-1.557020
-4.577180	-6.744800	-1.554380
-4.577130	-6.744720	-1.551770
-4.576960	-6.744450	-1.549120
-4.576950	-6.744420	-1.546530
-4.577100	-6.744630	-1.543990
-4.577090	-6.744600	-1.541400
-4.577080	-6.744570	-1.538800
-4.577070	-6.744540	-1.536210
-4.577260	-6.744800	-1.533680
-4.578220	-6.746200	-1.531410
-4.581630	-6.751220	-1.529960
-4.576660	-6.739740	-1.620920
-4.578440	-6.742340	-1.618950
-4.578640	-6.742630	-1.616430
-4.578680	-6.742680	-1.613840
-4.578730	-6.742730	-1.611260
-4.578770	-6.742780	-1.608680
-4.578610	-6.742520	-1.606020
-4.578700	-6.742630	-1.603450
-4.578930	-6.742970	-1.600940
-4.578940	-6.742960	-1.598340
-4.578940	-6.742940	-1.595750
-4.578940	-6.742930	-1.593150
-4.579060	-6.743090	-1.590590
-4.579100	-6.743130	-1.588010
-4.579010	-6.742990	-1.585390
-4.578930	-6.742860	-1.582760
-4.579010	-6.742960	-1.580200
-4.579130	-6.743120	-1.577640
-4.579200	-6.743210	-1.575070
-4.579040	-6.742960	-1.572420
-4.579110	-6.743050	-1.569850
-4.579230	-6.743210	-1.567300
-4.579180	-6.743120	-1.564690
-4.579330	-6.743340	-1.562150
-4.579490	-6.743550	-1.559610
-4.579320	-6.743290	-1.556960
-4.579110	-6.742960	-1.554300
-4.579270	-6.743170	-1.551760
-4.579340	-6.743270	-1.549190
-4.579250	-6.743120	-1.546570
-4.579200	-6.743040	-1.543960
-4.579110	-6.742890	-1.541340
-4.579100	-6.742860	-1.538750
-4.579170	-6.742940	-1.536180
-4.579440	-6.743330	-1.533680
-4.580480	-6.744840	-1.531440
-4.583700	-6.749570	-1.529930
-4.590420	-6.759450	-1.529580
-4.578500	-6.738140	-1.620870
-4.580280	-6.740750	-1.618900
-4.580400	-6.740910	-1.616340
-4.580650	-6.741260	-1.613830
-4.580780	-6.741430	-1.611270
-4.580730	-6.741350	-1.608660
-4.580700	-6.741280	-1.606050
-4.580780	-6.741380	-1.603480
-4.580780	-6.741370	-1.600880
-4.580660	-6.741180	-1.598240
-4.580740	-6.741290	-1.595680
-4.580860	-6.741440	-1.593120
-4.580860	-6.741430	-1.590520
-4.580700	-6.741180	-1.587870
-4.580900	-6.741450	-1.585350
-4.581020	-6.741610	-1.582790
-4.580890	-6.741420	-1.580150
-4.581050	-6.741640	-1.577610
-4.581330	-6.742030	-1.575110
-4.581240	-6.741890	-1.572490
-4.581200	-6.741810	-1.569880
-4.581030	-6.741550	-1.567230
-4.581230	-6.741820	-1.564710
-4.581140	-6.741680	-1.562080
-4.581090	-6.741590	-1.559470
-4.581010	-6.741450	-1.556850
-4.581080	-6.741540	-1.554280
-4.581110	-6.741570	-1.551700
-4.581140	-6.741610	-1.549120
-4.581260	-6.741760	-1.546570
-4.581090	-6.741500	-1.543920
-4.581000	-6.741340	-1.541300
-4.581110	-6.741500	-1.538750
-4.581140	-6.741520	-1.536170
-4.581480	-6.742020	-1.533700
-4.582520	-6.743530	-1.531450
-4.585780	-6.748320	-1.529950
-4.591100	-6.756130	-1.529130
-4.580610	-6.736800	-1.620880
-4.582470	-6.739520	-1.618940
-4.582870	-6.740100	-1.616480
-4.582960	-6.740210	-1.613910
-4.582960	-6.740200	-1.611320
-4.582800	-6.739940	-1.608660
-4.582800	-6.739930	-1.606060
-4.582850	-6.739980	-1.603480
-4.582850	-6.739970	-1.600880
-4.582890	-6.740010	-1.598300
-4.582640	-6.739640	-1.595620
-4.582770	-6.739800	-1.593060
-4.583090	-6.740260	-1.590580
-4.583170	-6.740370	-1.588010
-4.583090	-6.740230	-1.585390
-4.583000	-6.740090	-1.582760
-4.583120	-6.740250	-1.580210
-4.583280	-6.740470	-1.577670
-4.583310	-6.740500	-1.575090
-4.583390	-6.740600	-1.572520
-4.583310	-6.740460	-1.569900
-4.583380	-6.740560	-1.567330
-4.583300	-6.740420	-1.564710
-4.583130	-6.740150	-1.562050
-4.583080	-6.740070	-1.559450
-4.583200	-6.740230	-1.556890
-4.583150	-6.740140	-1.554280
-4.583060	-6.739990	-1.551660
-4.583050	-6.739960	-1.549070
-4.583080	-6.740000	-1.546490
-4.583110	-6.740020	-1.543910
-4.582980	-6.739820	-1.541270
-4.582970	-6.739790	-1.538680
-4.583200	-6.740120	-1.536170
-4.583720	-6.740860	-1.533750
-4.584960	-6.742670	-1.531580
-4.587850	-6.746910	-1.529950
-4.592410	-6.753590	-1.528880
-4.585300	-6.739160	-1.624390
-4.584990	-6.738680	-1.621680
-4.584950	-6.738610	-1.619070
-4.585200	-6.738950	-1.616550
-4.585160	-6.738890	-1.613940
-4.585080	-6.738760	-1.611320
-4.585090	-6.738750	-1.608720
-4.585130	-6.738790	-1.606130
-4.585130	-6.738780	-1.603540
-4.585130	-6.738760	-1.600940
-4.585130	-6.738750	-1.598340
-4.585040	-6.738610	-1.595720
-4.585050	-6.738600	-1.593120
-4.585330	-6.739000	-1.590620
-4.585290	-6.738920	-1.588010
-4.585290	-6.738910	-1.585420
-4.585160	-6.738710	-1.582780
-4.585160	-6.738690	-1.580180
-4.585320	-6.738910	-1.577640
-4.585430	-6.739060	-1.575090
-4.585430	-6.739040	-1.572490
-4.585270	-6.738790	-1.569840
-4.585420	-6.739000	-1.567300
-4.585540	-6.739160	-1.564750
-4.585490	-6.739070	-1.562140
-4.585320	-6.738810	-1.559490
-4.585320	-6.738790	-1.556890
-4.585590	-6.739180	-1.554400
-4.585460	-6.738960	-1.551760
-4.585330	-6.738760	-1.549120
-4.585360	-6.738790	-1.546540
-4.585310	-6.738710	-1.543940
-4.585100	-6.738380	-1.541270
-4.585290	-6.738650	-1.538750
-4.585570	-6.739030	-1.536250
-4.585840	-6.739420	-1.533750
-4.586920	-6.740990	-1.531520
-4.589530	-6.744820	-1.529800
-4.594250	-6.751730	-1.528780
-4.592310	-6.744710	-1.623490
-4.588360	-6.738900	-1.619490
-4.587270	-6.737280	-1.616510
-4.586950	-6.736790	-1.613800
-4.587030	-6.736910	-1.611230
-4.587040	-6.736900	-1.608630
-4.587120	-6.737000	-1.606060
-4.587360	-6.737340	-1.603550
-4.587280	-6.737210	-1.600930
-4.587320	-6.737250	-1.598340
-4.587320	-6.737240	-1.595750
-4.587160	-6.736990	-1.593090
-4.587200	-6.737030	-1.590510
-4.587360	-6.737250	-1.587970
-4.587360	-6.737240	-1.585370
-4.587360	-6.737220	-1.582780
-4.587470	-6.737370	-1.580220
-4.587390	-6.737240	-1.577600
-4.587470	-6.737330	-1.575030
-4.587620	-6.737550	-1.572490
-4.587500	-6.737350	-1.569850
-4.587650	-6.737560	-1.567310
-4.587570	-6.737420	-1.564690
-4.587520	-6.737340	-1.562080
-4.587590	-6.737430	-1.559510
-4.587430	-6.737170	-1.556870
-4.587540	-6.737330	-1.554310
-4.587610	-6.737410	-1.551740
-4.587570	-6.737330	-1.549140
-4.587510	-6.737240	-1.546530
-4.587590	-6.737330	-1.543960
-4.587620	-6.737360	-1.541380
-4.587770	-6.737570	-1.538840
-4.587760	-6.737540	-1.536250
-4.588110	-6.738040	-1.533780
-4.589480	-6.740030	-1.531640
-4.592660	-6.744690	-1.530110
-4.597380	-6.751600	-1.529090
-4.593880	-6.742430	-1.623290
-4.590370	-6.737270	-1.619450
-4.589520	-6.736010	-1.616550
-4.589370	-6.735760	-1.613900
-4.589130	-6.735400	-1.611220
-4.589170	-6.735440	-1.608630
-4.589410	-6.735780	-1.606120
-4.589290	-6.735590	-1.603480
-4.589340	-6.735640	-1.600900
-4.589450	-6.735800	-1.598340
-4.589540	-6.735910	-1.595770
-4.589540	-6.735900	-1.593180
-4.589580	-6.735940	-1.590590
-4.589490	-6.735800	-1.587970
-4.589330	-6.735550	-1.585320
-4.589320	-6.735520	-1.582720
-4.589770	-6.736160	-1.580280
-4.589850	-6.736260	-1.577710
-4.589720	-6.736060	-1.575070
-4.589790	-6.736150	-1.572500
-4.589840	-6.736200	-1.569920
-4.589660	-6.735930	-1.567270
-4.589540	-6.735730	-1.564640
-4.589490	-6.735650	-1.562030
-4.589610	-6.735800	-1.559470
-4.589480	-6.735600	-1.556840
-4.589550	-6.735690	-1.554270
-4.589910	-6.736200	-1.551800
-4.589780	-6.735990	-1.549160
-4.589490	-6.735550	-1.546470
-4.589680	-6.735820	-1.543950
-4.589950	-6.736200	-1.541450
-4.589820	-6.735990	-1.538820
-4.589690	-6.735790	-1.536180
-4.590080	-6.736350	-1.533720
-4.591530	-6.738450	-1.531620
-4.595110	-6.743700	-1.530220
-4.592910	-6.736310	-1.619580
-4.591790	-6.734640	-1.616580
-4.591500	-6.734210	-1.613880
-4.591470	-6.734150	-1.611270
-4.591750	-6.734550	-1.608770
-4.591630	-6.734360	-1.606130
-4.591510	-6.734170	-1.603500
-4.591680	-6.734390	-1.600950
-4.591920	-6.734730	-1.598440
-4.591920	-6.734720	-1.595840
-4.591760	-6.734470	-1.593190
-4.591760	-6.734450	-1.590590
-4.591670	-6.734310	-1.587970
-4.591470	-6.734000	-1.585300
-4.591500	-6.734040	-1.582720
-4.591620	-6.734200	-1.580170
-4.591830	-6.734480	-1.577640
-4.591860	-6.734520	-1.575060
-4.591770	-6.734380	-1.572440
-4.591930	-6.734590	-1.569900
-4.591930	-6.734570	-1.567300
-4.592160	-6.734900	-1.564790
-4.591910	-6.734520	-1.562110
-4.591710	-6.734200	-1.559450
-4.591980	-6.734590	-1.556950
-4.592020	-6.734620	-1.554370
-4.591890	-6.734420	-1.551730
-4.591920	-6.734450	-1.549150
-4.591870	-6.734360	-1.546540
-4.591780	-6.734220	-1.543920
-4.591850	-6.734300	-1.541360
-4.591880	-6.734330	-1.538770
-4.591990	-6.734480	-1.536220
-4.592380	-6.735040	-1.533760
-4.593620	-6.736850	-1.531590
-4.594890	-6.734610	-1.619520
-4.593930	-6.733180	-1.616580
-4.593690	-6.732820	-1.613900
-4.593610	-6.732680	-1.611270
-4.593570	-6.732610	-1.608660
-4.593700	-6.732780	-1.606110
-4.593620	-6.732640	-1.603480
-4.593700	-6.732750	-1.600910
-4.593700	-6.732740	-1.598320
-4.593660	-6.732660	-1.595700
-4.593860	-6.732950	-1.593180
-4.593900	-6.732990	-1.590590
-4.593780	-6.732790	-1.587960
-4.593730	-6.732710	-1.585350
-4.593820	-6.732820	-1.582780
-4.593970	-6.733030	-1.580240
-4.593810	-6.732770	-1.577580
-4.593960	-6.732990	-1.575040
-4.594120	-6.733200	-1.572500
-4.593960	-6.732950	-1.569850
-4.593790	-6.732690	-1.567200
-4.594110	-6.733140	-1.564720
-4.594140	-6.733170	-1.562140
-4.594050	-6.733030	-1.559510
-4.594170	-6.733180	-1.556960
-4.594080	-6.733040	-1.554340
-4.593830	-6.732660	-1.551660
-4.593860	-6.732690	-1.549080
-4.593890	-6.732720	-1.546500
-4.593960	-6.732810	-1.543940
-4.593950	-6.732780	-1.541340
-4.594020	-6.732870	-1.538770
-4.594010	-6.732840	-1.536180
-4.594490	-6.733520	-1.533750
-4.596100	-6.735860	-1.531700
-4.596060	-6.731730	-1.616580
-4.595660	-6.731120	-1.613840
-4.595820	-6.731340	-1.611300
-4.595990	-6.731580	-1.608760
-4.595830	-6.731320	-1.606110
-4.595750	-6.731190	-1.603480
-4.595750	-6.731180	-1.600880
-4.595710	-6.731110	-1.598270
-4.595910	-6.731380	-1.595750
-4.595990	-6.731490	-1.593180
-4.595990	-6.731470	-1.590580
-4.596070	-6.731570	-1.588010
-4.596110	-6.731610	-1.585430
-4.596180	-6.731710	-1.582860
-4.596060	-6.731510	-1.580220
-4.596180	-6.731670	-1.577670
-4.596140	-6.731600	-1.575060
-4.596050	-6.731460	-1.572440
-4.596210	-6.731670	-1.569900
-4.596200	-6.731650	-1.567300
-4.596120	-6.731510	-1.564680
-4.596230	-6.731660	-1.562120
-4.596140	-6.731520	-1.559500
-4.596220	-6.731610	-1.556930
-4.596250	-6.731650	-1.554350
-4.596120	-6.731440	-1.551720
-4.596160	-6.731470	-1.549140
-4.596350	-6.731740	-1.546610
-4.596180	-6.731480	-1.543960
-4.596050	-6.731270	-1.541330
-4.596110	-6.731360	-1.538760
-4.596270	-6.731560	-1.536220
-4.598040	-6.729920	-1.611320
-4.598120	-6.730020	-1.608750
-4.598090	-6.729960	-1.606130
-4.598010	-6.729820	-1.603510
-4.598090	-6.729920	-1.600940
-4.598290	-6.730210	-1.598410
-4.598290	-6.730200	-1.595820
-4.598250	-6.730120	-1.593200
-4.598250	-6.730100	-1.590610
-4.598330	-6.730200	-1.588040
-4.598370	-6.730250	-1.585460
-4.598480	-6.730400	-1.582900
-4.598400	-6.730270	-1.580280
-4.598320	-6.730130	-1.577660
-4.598230	-6.729990	-1.575030
-4.598310	-6.730080	-1.572460
-4.598470	-6.730310	-1.569920
-4.598460	-6.730280	-1.567330
-4.598500	-6.730320	-1.564750
-4.598610	-6.730470	-1.562190
-4.598530	-6.730330	-1.559570
-4.598350	-6.730060	-1.556920
-4.598310	-6.729980	-1.554310
-4.598420	-6.730130	-1.551760
-4.598410	-6.730100	-1.549160
-4.598320	-6.729950	-1.546540
-4.598390	-6.730050	-1.543980
-4.598180	-6.729720	-1.541310
-4.600150	-6.728280	-1.603500
-4.600150	-6.728270	-1.600900
-4.600350	-6.728540	-1.598370
-4.600430	-6.728640	-1.595800
-4.600180	-6.728270	-1.593120
-4.600140	-6.728200	-1.590510
-4.600300	-6.728420	-1.587970
-4.600420	-6.728580	-1.585420
-4.600540	-6.728730	-1.582860
-4.600420	-6.728540	-1.580220
-4.600290	-6.728340	-1.577580
