-4.653300	4.726720	0.006180
-4.652550	4.725980	0.007470
-4.652380	4.725830	0.008770
-4.651780	4.725220	0.010060
-4.651310	4.724770	0.011350
-4.650870	4.724330	0.012650
-4.650600	4.724080	0.013940
-4.650240	4.723730	0.015230
-4.650000	4.723510	0.016530
-4.649740	4.723250	0.017820
-4.649530	4.723060	0.019110
-4.649250	4.722790	0.020400
-4.649010	4.722560	0.021690
-4.648860	4.722430	0.022980
-4.648720	4.722310	0.024280
-4.648650	4.722250	0.025570
-4.648500	4.722110	0.026860
-4.648400	4.722030	0.028150
-4.648380	4.722030	0.029440
-4.648400	4.722060	0.030730
-4.648280	4.721960	0.032020
-4.648370	4.722070	0.033310
-4.648420	4.722140	0.034610
-4.648470	4.722210	0.035900
-4.648610	4.722370	0.037190
-4.648670	4.722450	0.038490
-4.648740	4.722550	0.039780
-4.648930	4.722750	0.041080
-4.649200	4.723050	0.042370
-4.649370	4.723240	0.043670
-4.649810	4.723710	0.044960
-4.649910	4.723820	0.046260
-4.650230	4.724170	0.047560
-4.650520	4.724470	0.048850
-4.650760	4.724730	0.050150
-4.651040	4.725030	0.051440
-4.651720	4.725740	0.052740
-4.651990	4.726030	0.054040
-4.652510	4.726570	0.055340
-4.653230	4.727310	0.056640
-4.653550	4.727650	0.057940
-4.654210	4.728340	0.059240
-4.654850	4.729000	0.060540
-4.655470	4.729650	0.061850
-4.656280	4.730490	0.063150
-4.657010	4.731250	0.064460
-4.658000	4.732270	0.065770
-4.658810	4.733110	0.067070
-4.659720	4.734050	0.068380
-4.660660	4.735030	0.069690
-4.661950	4.736350	0.071010
-4.663220	4.737670	0.072330
-4.664880	4.739360	0.073650
-4.666370	4.740900	0.074970
-4.668240	4.742810	0.076300
-4.670100	4.744710	0.077630
-4.673000	4.747680	0.078980
-4.673830	4.749190	-0.016780
-4.670880	4.746220	-0.015470
-4.668320	4.743640	-0.014170
-4.666590	4.741890	-0.012860
-4.664880	4.740170	-0.011560
-4.663630	4.738920	-0.010260
-4.661980	4.737260	-0.008960
-4.660890	4.736180	-0.007670
-4.659940	4.735220	-0.006370
-4.658870	4.734150	-0.005070
-4.657900	4.733190	-0.003780
-4.656910	4.732200	-0.002480
-4.656290	4.731580	-0.001190
-4.655240	4.730540	0.000110
-4.654770	4.730080	0.001400
-4.653950	4.729260	0.002700
-4.653430	4.728750	0.003990
-4.652880	4.728200	0.005280
-4.652260	4.727590	0.006580
-4.651740	4.727080	0.007870
-4.651120	4.726470	0.009160
-4.650740	4.726100	0.010450
-4.650410	4.725780	0.011750
-4.650150	4.725540	0.013040
-4.649720	4.725120	0.014330
-4.649350	4.724750	0.015620
-4.649130	4.724550	0.016920
-4.648850	4.724280	0.018210
-4.648490	4.723930	0.019500
-4.648320	4.723780	0.020790
-4.648150	4.723620	0.022080
-4.647960	4.723450	0.023370
-4.647780	4.723280	0.024670
-4.647690	4.723200	0.025960
-4.647590	4.723130	0.027250
-4.647550	4.723100	0.028540
-4.647540	4.723100	0.029830
-4.647570	4.723150	0.031130
-4.647450	4.723050	0.032420
-4.647400	4.723010	0.033710
-4.647630	4.723260	0.035000
-4.647640	4.723290	0.036300
-4.647680	4.723350	0.037590
-4.647880	4.723570	0.038880
-4.647880	4.723580	0.040180
-4.648120	4.723840	0.041470
-4.648430	4.724180	0.042770
-4.648620	4.724390	0.044060
-4.648720	4.724510	0.045360
-4.649140	4.724960	0.046650
-4.649420	4.725250	0.047950
-4.649770	4.725630	0.049250
-4.650020	4.725900	0.050540
-4.650320	4.726220	0.051840
-4.650790	4.726710	0.053140
-4.651320	4.727280	0.054440
-4.651740	4.727720	0.055740
-4.652400	4.728400	0.057040
-4.652970	4.729000	0.058340
-4.653680	4.729740	0.059650
-4.654270	4.730360	0.060950
-4.654700	4.730800	0.062250
-4.655600	4.731740	0.063560
-4.656430	4.732600	0.064870
-4.657190	4.733390	0.066180
-4.658130	4.734360	0.067480
-4.659270	4.735540	0.068800
-4.660420	4.736730	0.070110
-4.661400	4.737740	0.071420
-4.663020	4.739400	0.072740
-4.664140	4.740560	0.074060
-4.665970	4.742430	0.075380
-4.667490	4.744000	0.076710
-4.670230	4.746790	0.078050
-4.673090	4.750290	-0.016660
-4.669800	4.746960	-0.015350
-4.667390	4.744530	-0.014050
-4.665750	4.742880	-0.012750
-4.664120	4.741240	-0.011450
-4.662520	4.739630	-0.010150
-4.661130	4.738230	-0.008850
-4.660050	4.737150	-0.007550
-4.658930	4.736030	-0.006250
-4.657890	4.734990	-0.004950
-4.656990	4.734090	-0.003660
-4.655830	4.732930	-0.002360
-4.655530	4.732640	-0.001070
-4.654650	4.731770	0.000230
-4.653900	4.731020	0.001530
-4.653140	4.730270	0.002820
-4.652430	4.729560	0.004110
-4.651830	4.728980	0.005410
-4.651380	4.728540	0.006700
-4.650900	4.728060	0.007990
-4.650380	4.727550	0.009280
-4.650060	4.727240	0.010580
-4.649610	4.726800	0.011870
-4.649130	4.726330	0.013160
-4.648840	4.726050	0.014450
-4.648620	4.725840	0.015740
-4.648170	4.725400	0.017040
-4.648020	4.725270	0.018330
-4.647720	4.724980	0.019620
-4.647480	4.724750	0.020910
-4.647330	4.724630	0.022200
-4.647210	4.724520	0.023500
-4.647050	4.724370	0.024790
-4.646890	4.724230	0.026080
-4.646770	4.724120	0.027370
-4.646740	4.724110	0.028660
-4.646590	4.723970	0.029960
-4.646590	4.723980	0.031250
-4.646710	4.724120	0.032540
-4.646750	4.724190	0.033840
-4.646710	4.724160	0.035130
-4.646800	4.724270	0.036420
-4.646920	4.724410	0.037720
-4.646970	4.724480	0.039010
-4.647280	4.724810	0.040310
-4.647350	4.724890	0.041600
-4.647500	4.725070	0.042900
-4.647870	4.725460	0.044190
-4.648060	4.725670	0.045490
-4.648400	4.726040	0.046790
-4.648700	4.726360	0.048080
-4.648910	4.726580	0.049380
-4.649320	4.727020	0.050680
-4.649790	4.727520	0.051970
-4.650130	4.727870	0.053270
-4.650670	4.728450	0.054570
-4.651300	4.729100	0.055870
-4.651800	4.729620	0.057170
-4.652340	4.730190	0.058470
-4.652940	4.730820	0.059770
-4.653600	4.731500	0.061070
-4.654310	4.732250	0.062380
-4.655130	4.733100	0.063680
-4.655830	4.733830	0.064990
-4.656680	4.734700	0.066300
-4.657710	4.735770	0.067610
-4.658840	4.736930	0.068920
-4.659970	4.738100	0.070230
-4.661230	4.739400	0.071550
-4.662600	4.740810	0.072870
-4.664130	4.742380	0.074190
-4.665990	4.744290	0.075520
-4.667870	4.746220	0.076850
-4.670270	4.748670	0.078190
-4.679240	4.757810	0.079640
-4.672670	4.751740	-0.016480
-4.669160	4.748190	-0.015170
-4.667260	4.746280	-0.013860
-4.664740	4.743720	-0.012560
-4.663150	4.742130	-0.011260
-4.661620	4.740590	-0.009960
-4.660340	4.739300	-0.008660
-4.659220	4.738170	-0.007360
-4.658050	4.737000	-0.006060
-4.656950	4.735900	-0.004760
-4.656430	4.735390	-0.003470
-4.655270	4.734230	-0.002170
-4.654460	4.733430	-0.000880
-4.653790	4.732760	0.000420
-4.653100	4.732090	0.001710
-4.652400	4.731390	0.003000
-4.651700	4.730690	0.004300
-4.651070	4.730080	0.005590
-4.650440	4.729460	0.006880
-4.650060	4.729090	0.008180
-4.649630	4.728670	0.009470
-4.649190	4.728240	0.010760
-4.648680	4.727730	0.012050
-4.648480	4.727540	0.013340
-4.648060	4.727130	0.014640
-4.647730	4.726810	0.015930
-4.647560	4.726650	0.017220
-4.647140	4.726240	0.018510
-4.646990	4.726100	0.019810
-4.646640	4.725760	0.021100
-4.646480	4.725610	0.022390
-4.646280	4.725430	0.023680
-4.646270	4.725440	0.024980
-4.646160	4.725340	0.026270
-4.645900	4.725090	0.027560
-4.645830	4.725030	0.028850
-4.645900	4.725130	0.030140
-4.645850	4.725100	0.031440
-4.645920	4.725180	0.032730
-4.645880	4.725160	0.034020
-4.645900	4.725190	0.035310
-4.646090	4.725410	0.036610
-4.646080	4.725410	0.037900
-4.646350	4.725700	0.039200
-4.646510	4.725880	0.040490
-4.646640	4.726030	0.041790
-4.646920	4.726340	0.043080
-4.647140	4.726570	0.044370
-4.647440	4.726890	0.045670
-4.647660	4.727130	0.046960
-4.648010	4.727510	0.048260
-4.648270	4.727790	0.049560
-4.648710	4.728260	0.050850
-4.648970	4.728540	0.052150
-4.649440	4.729040	0.053450
-4.649850	4.729470	0.054750
-4.650510	4.730160	0.056050
-4.651040	4.730720	0.057350
-4.651560	4.731260	0.058650
-4.652060	4.731780	0.059950
-4.652810	4.732570	0.061260
-4.653780	4.733560	0.062560
-4.654570	4.734390	0.063870
-4.655130	4.734980	0.065170
-4.656210	4.736090	0.066480
-4.656960	4.736870	0.067790
-4.658160	4.738110	0.069110
-4.659180	4.739160	0.070420
-4.660460	4.740480	0.071730
-4.662050	4.742110	0.073060
-4.663500	4.743610	0.074370
-4.665510	4.745670	0.075700
-4.667550	4.747760	0.077040
-4.670060	4.750330	0.078380
-4.668470	4.749340	-0.015240
-4.666110	4.746950	-0.013930
-4.664470	4.745300	-0.012630
-4.662750	4.743570	-0.011330
-4.661020	4.741830	-0.010020
-4.659930	4.740730	-0.008720
-4.658550	4.739350	-0.007420
-4.657380	4.738180	-0.006130
-4.656580	4.737380	-0.004830
-4.655420	4.736220	-0.003530
-4.654620	4.735420	-0.002240
-4.653900	4.734710	-0.000940
-4.652970	4.733780	0.000350
-4.652470	4.733290	0.001650
-4.651610	4.732430	0.002940
-4.651030	4.731850	0.004230
-4.650410	4.731240	0.005530
-4.649950	4.730790	0.006820
-4.649400	4.730250	0.008110
-4.648880	4.729740	0.009400
-4.648490	4.729350	0.010700
-4.648120	4.729000	0.011990
-4.647700	4.728590	0.013280
-4.647360	4.728260	0.014580
-4.646920	4.727830	0.015870
-4.646730	4.727650	0.017160
-4.646420	4.727360	0.018450
-4.646200	4.727150	0.019750
-4.646050	4.727010	0.021040
-4.645770	4.726750	0.022330
-4.645540	4.726530	0.023620
-4.645450	4.726450	0.024920
-4.645260	4.726280	0.026210
-4.645250	4.726290	0.027500
-4.645250	4.726300	0.028800
-4.645150	4.726210	0.030090
-4.645120	4.726210	0.031380
-4.645200	4.726300	0.032680
-4.645110	4.726230	0.033970
-4.645230	4.726370	0.035270
-4.645370	4.726530	0.036560
-4.645380	4.726560	0.037850
-4.645570	4.726770	0.039150
-4.645680	4.726890	0.040440
-4.645800	4.727030	0.041740
-4.646100	4.727350	0.043030
-4.646280	4.727550	0.044320
-4.646670	4.727970	0.045620
-4.646900	4.728220	0.046920
-4.647160	4.728500	0.048210
-4.647580	4.728950	0.049510
-4.647970	4.729360	0.050810
-4.648290	4.729700	0.052100
-4.648660	4.730090	0.053400
-4.649080	4.730540	0.054700
-4.649660	4.731140	0.056010
-4.650410	4.731930	0.057310
-4.650820	4.732370	0.058610
-4.651440	4.733010	0.059910
-4.652340	4.733940	0.061220
-4.652880	4.734510	0.062520
-4.653650	4.735310	0.063830
-4.654610	4.736300	0.065140
-4.655130	4.736850	0.066440
-4.656270	4.738020	0.067760
-4.657310	4.739100	0.069070
-4.658770	4.740600	0.070390
-4.659840	4.741710	0.071700
-4.661470	4.743380	0.073030
-4.662800	4.744750	0.074350
-4.664660	4.746670	0.075680
-4.667320	4.749390	0.077020
-4.669700	4.751820	0.078360
-4.670310	4.753090	-0.015900
-4.664610	4.747320	-0.013290
-4.662930	4.745630	-0.011990
-4.661700	4.744400	-0.010690
-4.659860	4.742540	-0.009390
-4.658700	4.741380	-0.008090
-4.657540	4.740210	-0.006790
-4.656340	4.739020	-0.005490
-4.655460	4.738130	-0.004190
-4.654470	4.737150	-0.002900
-4.653590	4.736270	-0.001600
-4.652670	4.735350	-0.000310
-4.651970	4.734650	0.000990
-4.651320	4.734000	0.002280
-4.650610	4.733300	0.003580
-4.650150	4.732850	0.004870
-4.649460	4.732160	0.006160
-4.648940	4.731660	0.007460
-4.648350	4.731080	0.008750
-4.647880	4.730610	0.010040
-4.647530	4.730270	0.011330
-4.647070	4.729820	0.012630
-4.646850	4.729610	0.013920
-4.646270	4.729040	0.015210
-4.646080	4.728870	0.016500
-4.645960	4.728760	0.017800
-4.645590	4.728400	0.019090
-4.645420	4.728250	0.020380
-4.645290	4.728130	0.021670
-4.645120	4.727980	0.022960
-4.644840	4.727710	0.024250
-4.644620	4.727500	0.025540
-4.644590	4.727490	0.026840
-4.644480	4.727390	0.028130
-4.644500	4.727430	0.029420
-4.644420	4.727370	0.030710
-4.644320	4.727280	0.032010
-4.644360	4.727330	0.033300
-4.644590	4.727590	0.034600
-4.644560	4.727570	0.035890
-4.644630	4.727670	0.037180
-4.644680	4.727740	0.038480
-4.644910	4.727990	0.039770
-4.645160	4.728250	0.041070
-4.645410	4.728520	0.042370
-4.645480	4.728620	0.043660
-4.645800	4.728950	0.044960
-4.645950	4.729120	0.046250
-4.646300	4.729500	0.047550
-4.646520	4.729740	0.048840
-4.646890	4.730140	0.050140
-4.647450	4.730720	0.051440
-4.647830	4.731120	0.052740
-4.648390	4.731720	0.054040
-4.648980	4.732330	0.055340
-4.649230	4.732610	0.056640
-4.649920	4.733320	0.057940
-4.650350	4.733770	0.059240
-4.651050	4.734510	0.060540
-4.651980	4.735470	0.061850
-4.652560	4.736080	0.063150
-4.653610	4.737160	0.064460
-4.654390	4.737970	0.065770
-4.655320	4.738940	0.067080
-4.656400	4.740050	0.068390
-4.657720	4.741420	0.069710
-4.658430	4.742150	0.071020
-4.660340	4.744110	0.072340
-4.661710	4.745530	0.073660
-4.663550	4.747410	0.074990
-4.665510	4.749430	0.076320
-4.668440	4.752430	0.077670
-4.668020	4.752640	-0.014930
-4.664880	4.749460	-0.013620
-4.663300	4.747870	-0.012320
-4.661360	4.745920	-0.011020
-4.659850	4.744390	-0.009720
-4.658500	4.743040	-0.008420
-4.657110	4.741630	-0.007120
-4.655990	4.740510	-0.005820
-4.655330	4.739860	-0.004520
-4.654330	4.738860	-0.003230
-4.653080	4.737600	-0.001930
-4.652420	4.736950	-0.000640
-4.651640	4.736170	0.000660
-4.650890	4.735430	0.001950
-4.650200	4.734740	0.003250
-4.649540	4.734090	0.004540
-4.648850	4.733400	0.005840
-4.648380	4.732940	0.007130
-4.647790	4.732360	0.008420
-4.647360	4.731940	0.009720
-4.646980	4.731560	0.011010
-4.646570	4.731160	0.012300
-4.646140	4.730740	0.013600
-4.645870	4.730480	0.014890
-4.645630	4.730260	0.016180
-4.645250	4.729890	0.017470
-4.645020	4.729670	0.018770
-4.644650	4.729320	0.020060
-4.644540	4.729210	0.021350
-4.644350	4.729040	0.022650
-4.644160	4.728870	0.023940
-4.644010	4.728730	0.025230
-4.643940	4.728670	0.026520
-4.643830	4.728580	0.027820
-4.643840	4.728610	0.029110
-4.643640	4.728430	0.030400
-4.643830	4.728630	0.031690
-4.643690	4.728510	0.032990
-4.643720	4.728560	0.034280
-4.643760	4.728610	0.035570
-4.643880	4.728750	0.036870
-4.644080	4.728970	0.038160
-4.644240	4.729150	0.039460
-4.644330	4.729260	0.040750
-4.644510	4.729470	0.042050
-4.644870	4.729840	0.043340
-4.645050	4.730050	0.044640
-4.645370	4.730390	0.045940
-4.645460	4.730500	0.047230
-4.645880	4.730940	0.048530
-4.646230	4.731320	0.049830
-4.646710	4.731820	0.051130
-4.647020	4.732150	0.052420
-4.647610	4.732770	0.053720
-4.648030	4.733220	0.055020
-4.648510	4.733720	0.056320
-4.648920	4.734150	0.057620
-4.649590	4.734850	0.058920
-4.650450	4.735740	0.060230
-4.651300	4.736630	0.061530
-4.651740	4.737090	0.062830
-4.652620	4.738000	0.064140
-4.653570	4.738990	0.065450
-4.654270	4.739720	0.066750
-4.655450	4.740930	0.068070
-4.656550	4.742070	0.069380
-4.657980	4.743540	0.070700
-4.659380	4.744980	0.072020
-4.660880	4.746520	0.073340
-4.662540	4.748230	0.074670
-4.665030	4.750780	0.076010
-4.667340	4.753150	0.077350
-4.666790	4.753210	-0.014530
-4.664400	4.750790	-0.013220
-4.662500	4.748870	-0.011920
-4.660360	4.746710	-0.010620
-4.658860	4.745200	-0.009320
-4.657630	4.743970	-0.008020
-4.656660	4.742990	-0.006720
-4.655400	4.741730	-0.005420
-4.654190	4.740510	-0.004130
-4.653060	4.739380	-0.002830
-4.652170	4.738490	-0.001530
-4.651620	4.737950	-0.000240
-4.650020	4.736360	0.002350
-4.649340	4.735680	0.003650
-4.648900	4.735240	0.004940
-4.648260	4.734610	0.006240
-4.647590	4.733940	0.007530
-4.647250	4.733620	0.008830
-4.646680	4.733060	0.010120
-4.646240	4.732620	0.011410
-4.645810	4.732210	0.012710
-4.645400	4.731810	0.014000
-4.645150	4.731570	0.015290
-4.644900	4.731320	0.016590
-4.644480	4.730920	0.017880
-4.644380	4.730840	0.019170
-4.644020	4.730480	0.020460
-4.643880	4.730360	0.021750
-4.643730	4.730220	0.023050
-4.643510	4.730020	0.024340
-4.643290	4.729810	0.025630
-4.643380	4.729920	0.026920
-4.643240	4.729790	0.028210
-4.643150	4.729720	0.029510
-4.643040	4.729630	0.030800
-4.643110	4.729710	0.032090
-4.643030	4.729650	0.033380
-4.643190	4.729830	0.034680
-4.643300	4.729960	0.035970
-4.643390	4.730060	0.037270
-4.643550	4.730250	0.038560
-4.643760	4.730480	0.039860
-4.643690	4.730420	0.041150
-4.644030	4.730790	0.042450
-4.644280	4.731060	0.043740
-4.644430	4.731220	0.045040
-4.644790	4.731610	0.046340
-4.645050	4.731890	0.047630
-4.645410	4.732280	0.048930
-4.645660	4.732550	0.050230
-4.646110	4.733030	0.051530
-4.646600	4.733540	0.052830
-4.647170	4.734140	0.054130
-4.647480	4.734470	0.055430
-4.648300	4.735330	0.056730
-4.648720	4.735770	0.058030
-4.649320	4.736390	0.059330
-4.649970	4.737080	0.060640
-4.650730	4.737870	0.061940
-4.651520	4.738690	0.063250
-4.652320	4.739520	0.064560
-4.653260	4.740490	0.065860
-4.654010	4.741270	0.067170
-4.655560	4.742870	0.068490
-4.656430	4.743780	0.069800
-4.657650	4.745030	0.071120
-4.659610	4.747050	0.072450
-4.660810	4.748290	0.073760
-4.662730	4.750260	0.075090
-4.665130	4.752720	0.076430
-4.669920	4.757620	0.077810
-4.665980	4.754250	-0.014210
-4.663490	4.751730	-0.012900
-4.661520	4.749730	-0.011600
-4.659790	4.747990	-0.010300
-4.658290	4.746470	-0.009000
-4.656990	4.745170	-0.007700
-4.656000	4.744180	-0.006400
-4.654520	4.742680	-0.005100
-4.653500	4.741650	-0.003800
-4.652270	4.740420	-0.002510
-4.651560	4.739710	-0.001210
-4.650750	4.738910	0.000090
-4.649910	4.738070	0.001380
-4.649410	4.737580	0.002680
-4.648770	4.736940	0.003970
-4.647910	4.736090	0.005260
-4.647390	4.735570	0.006560
-4.646940	4.735140	0.007850
-4.646560	4.734770	0.009140
-4.645950	4.734170	0.010440
-4.645420	4.733650	0.011730
-4.645160	4.733400	0.013020
-4.644730	4.732980	0.014310
-4.644320	4.732580	0.015600
-4.644140	4.732420	0.016890
-4.643920	4.732200	0.018190
-4.643640	4.731930	0.019480
-4.643410	4.731710	0.020770
-4.643140	4.731450	0.022060
-4.642950	4.731270	0.023350
-4.642810	4.731140	0.024650
-4.642800	4.731150	0.025940
-4.642640	4.731000	0.027230
-4.642460	4.730830	0.028530
-4.642410	4.730800	0.029820
-4.642490	4.730900	0.031110
-4.642450	4.730880	0.032410
-4.642580	4.731030	0.033700
-4.642570	4.731040	0.035000
-4.642630	4.731110	0.036290
-4.642660	4.731150	0.037580
-4.642910	4.731420	0.038880
-4.643040	4.731580	0.040170
-4.643260	4.731820	0.041460
-4.643430	4.732010	0.042760
-4.643550	4.732150	0.044050
-4.643760	4.732380	0.045350
-4.644130	4.732770	0.046640
-4.644350	4.733020	0.047940
-4.644860	4.733550	0.049240
-4.645210	4.733920	0.050540
-4.645520	4.734260	0.051830
-4.646050	4.734810	0.053130
-4.646530	4.735330	0.054430
-4.647000	4.735820	0.055730
-4.647490	4.736330	0.057040
-4.648400	4.737280	0.058340
-4.648990	4.737900	0.059640
-4.649530	4.738470	0.060950
-4.650350	4.739320	0.062250
-4.651080	4.740080	0.063560
-4.652000	4.741040	0.064870
-4.652860	4.741930	0.066170
-4.654060	4.743170	0.067490
-4.655090	4.744230	0.068800
-4.656410	4.745600	0.070120
-4.657840	4.747070	0.071430
-4.661160	4.750490	0.074080
-4.663180	4.752560	0.075410
-4.666110	4.755560	0.076760
-4.665960	4.756080	-0.013990
-4.663140	4.753220	-0.012680
-4.660830	4.750880	-0.011380
-4.659070	4.749100	-0.010070
-4.657580	4.747600	-0.008770
-4.656360	4.746380	-0.007480
-4.654980	4.744990	-0.006180
-4.653750	4.743750	-0.004880
-4.652900	4.742910	-0.003580
-4.652040	4.742050	-0.002290
-4.651030	4.741030	-0.000990
-4.650220	4.740220	0.000300
-4.649440	4.739450	0.001600
-4.648680	4.738690	0.002900
-4.648020	4.738030	0.004190
-4.647370	4.737390	0.005490
-4.646740	4.736770	0.006780
-4.646560	4.736600	0.008080
-4.645720	4.735760	0.009370
-4.645130	4.735170	0.010660
-4.644830	4.734890	0.011960
-4.644570	4.734640	0.013250
-4.644190	4.734270	0.014540
-4.643840	4.733930	0.015840
-4.643530	4.733630	0.017130
-4.643210	4.733320	0.018420
-4.642910	4.733030	0.019710
-4.642740	4.732880	0.021000
-4.642500	4.732650	0.022290
-4.642400	4.732570	0.023580
-4.642290	4.732470	0.024880
-4.642020	4.732210	0.026170
-4.642000	4.732200	0.027460
-4.642030	4.732250	0.028750
-4.641860	4.732100	0.030040
-4.641960	4.732220	0.031340
-4.641980	4.732260	0.032630
-4.641910	4.732200	0.033920
-4.642020	4.732330	0.035220
-4.642130	4.732460	0.036510
-4.642210	4.732560	0.037810
-4.642430	4.732800	0.039100
-4.642440	4.732830	0.040400
-4.642680	4.733090	0.041690
-4.642850	4.733280	0.042990
-4.643100	4.733550	0.044280
-4.643490	4.733970	0.045580
-4.643520	4.734020	0.046870
-4.644120	4.734640	0.048170
-4.644280	4.734820	0.049470
-4.644780	4.735350	0.050760
-4.645190	4.735790	0.052060
-4.645580	4.736200	0.053360
-4.646110	4.736760	0.054660
-4.646640	4.737310	0.055960
-4.647380	4.738090	0.057260
-4.647830	4.738570	0.058560
-4.648620	4.739390	0.059870
-4.649230	4.740020	0.061170
-4.650050	4.740870	0.062480
-4.651040	4.741910	0.063790
-4.651820	4.742720	0.065090
-4.652870	4.743800	0.066400
-4.653930	4.744900	0.067710
-4.654870	4.745870	0.069020
-4.656080	4.747130	0.070340
-4.657700	4.748800	0.071660
-4.659250	4.750390	0.072980
-4.661410	4.752610	0.074320
-4.663850	4.755120	0.075660
-4.669900	4.761300	0.077060
-4.670290	4.762300	-0.014600
-4.664500	4.756420	-0.013280
-4.661700	4.753580	-0.011970
-4.659880	4.751740	-0.010670
-4.656680	4.748520	-0.008070
-4.655300	4.747130	-0.006770
-4.653890	4.745700	-0.005470
-4.652900	4.744710	-0.004180
-4.651660	4.743460	-0.002880
-4.650870	4.742680	-0.001580
-4.650050	4.741850	-0.000290
-4.649200	4.741010	0.001010
-4.648440	4.740250	0.002300
-4.647680	4.739490	0.003600
-4.647310	4.739130	0.004890
-4.646570	4.738390	0.006180
-4.645970	4.737800	0.007480
-4.645490	4.737320	0.008770
-4.644950	4.736790	0.010060
-4.644460	4.736310	0.011360
-4.644210	4.736080	0.012650
-4.643660	4.735530	0.013940
-4.643400	4.735280	0.015240
-4.642970	4.734860	0.016530
-4.642780	4.734680	0.017820
-4.642620	4.734540	0.019120
-4.642150	4.734070	0.020410
-4.641990	4.733930	0.021700
-4.641780	4.733740	0.022990
-4.641620	4.733590	0.024290
-4.641510	4.733500	0.025580
-4.641510	4.733510	0.026870
-4.641270	4.733280	0.028170
-4.641310	4.733340	0.029460
-4.641470	4.733520	0.030750
-4.641410	4.733480	0.032050
-4.641350	4.733430	0.033340
-4.641350	4.733450	0.034640
-4.641520	4.733640	0.035930
-4.641590	4.733730	0.037220
-4.641670	4.733830	0.038520
-4.641870	4.734050	0.039810
-4.641930	4.734120	0.041100
-4.642080	4.734300	0.042400
-4.642270	4.734510	0.043690
-4.642660	4.734930	0.044990
-4.642890	4.735180	0.046280
-4.643430	4.735740	0.047580
-4.643570	4.735910	0.048880
-4.644030	4.736380	0.050180
-4.644430	4.736810	0.051480
-4.644850	4.737250	0.052770
-4.645250	4.737680	0.054070
-4.645790	4.738250	0.055380
-4.646460	4.738950	0.056680
-4.647090	4.739610	0.057980
-4.647730	4.740280	0.059280
-4.648490	4.741070	0.060590
-4.649300	4.741920	0.061900
-4.650010	4.742650	0.063200
-4.650960	4.743640	0.064510
-4.652040	4.744760	0.065820
-4.653050	4.745810	0.067130
-4.654280	4.747080	0.068450
-4.655600	4.748440	0.069770
-4.656900	4.749790	0.071080
-4.658390	4.751320	0.072410
-4.660600	4.753600	0.073740
-4.662720	4.755770	0.075070
-4.665800	4.758930	0.076420
-4.666600	4.760420	-0.013780
-4.663290	4.757060	-0.012470
-4.660700	4.754440	-0.011160
-4.658820	4.752530	-0.009860
-4.656980	4.750670	-0.008560
-4.655620	4.749310	-0.007260
-4.654050	4.747720	-0.005960
-4.652750	4.746420	-0.004660
-4.651850	4.745510	-0.003360
-4.650730	4.744390	-0.002070
-4.649900	4.743560	-0.000770
-4.649060	4.742720	0.000530
-4.648410	4.742070	0.001820
-4.647510	4.741170	0.003120
-4.647020	4.740690	0.004420
-4.646370	4.740050	0.005710
-4.645600	4.739270	0.007000
-4.645080	4.738770	0.008300
-4.644720	4.738410	0.009590
-4.644200	4.737900	0.010890
-4.643870	4.737580	0.012180
-4.643420	4.737130	0.013470
-4.643090	4.736820	0.014770
-4.642650	4.736390	0.016060
-4.642190	4.735940	0.017350
-4.641950	4.735710	0.018640
-4.641710	4.735480	0.019940
-4.641530	4.735310	0.021230
-4.641350	4.735150	0.022520
-4.641100	4.734910	0.023810
-4.641010	4.734830	0.025110
-4.641020	4.734860	0.026400
-4.640850	4.734710	0.027690
-4.640880	4.734750	0.028980
-4.640900	4.734790	0.030280
-4.640720	4.734620	0.031570
-4.640800	4.734730	0.032870
-4.640780	4.734720	0.034160
-4.640800	4.734760	0.035460
-4.640950	4.734930	0.036750
-4.640900	4.734900	0.038050
-4.641180	4.735200	0.039340
-4.641350	4.735380	0.040640
-4.641680	4.735740	0.041940
-4.641670	4.735750	0.043230
-4.642090	4.736190	0.044530
-4.642350	4.736470	0.045820
-4.642720	4.736870	0.047120
-4.643090	4.737260	0.048420
-4.643420	4.737620	0.049720
-4.643950	4.738180	0.051020
-4.644350	4.738600	0.052320
-4.644680	4.738960	0.053610
-4.645280	4.739580	0.054920
-4.645790	4.740120	0.056220
-4.646390	4.740760	0.057520
-4.647060	4.741450	0.058820
-4.647910	4.742340	0.060130
-4.648560	4.743010	0.061430
-4.649360	4.743850	0.062740
-4.650360	4.744890	0.064050
-4.651120	4.745680	0.065360
-4.652620	4.747230	0.066680
-4.653130	4.747760	0.067980
-4.654960	4.749650	0.069310
-4.656290	4.751020	0.070620
-4.657750	4.752530	0.071940
-4.659900	4.754740	0.073280
-4.662610	4.757520	0.074620
-4.666570	4.761570	0.075990
-4.666750	4.762420	-0.013480
-4.662650	4.758250	-0.012170
-4.660200	4.755770	-0.010870
-4.658180	4.753730	-0.009560
-4.656580	4.752120	-0.008260
-4.655070	4.750590	-0.006960
-4.653720	4.749230	-0.005660
-4.652230	4.747720	-0.004360
-4.651330	4.746820	-0.003070
-4.650240	4.745730	-0.001770
-4.649340	4.744830	-0.000480
-4.648650	4.744140	0.000820
-4.647840	4.743330	0.002110
-4.647010	4.742510	0.003410
-4.646260	4.741760	0.004700
-4.645600	4.741100	0.005990
-4.645270	4.740770	0.007290
-4.644500	4.740010	0.008580
-4.644040	4.739550	0.009870
-4.643550	4.739070	0.011160
-4.643120	4.738650	0.012460
-4.642770	4.738310	0.013750
-4.642420	4.737970	0.015040
-4.642010	4.737570	0.016340
-4.641600	4.737170	0.017630
-4.641450	4.737030	0.018920
-4.641210	4.736810	0.020220
-4.640890	4.736500	0.021510
-4.640680	4.736300	0.022800
-4.640590	4.736220	0.024090
-4.640470	4.736120	0.025390
-4.640420	4.736080	0.026680
-4.640320	4.736000	0.027970
-4.640210	4.735910	0.029270
-4.640160	4.735880	0.030560
-4.640160	4.735890	0.031850
-4.640270	4.736020	0.033150
-4.640290	4.736050	0.034440
-4.640320	4.736100	0.035730
-4.640490	4.736300	0.037030
-4.640590	4.736410	0.038320
-4.640670	4.736520	0.039620
-4.640970	4.736840	0.040920
-4.641140	4.737030	0.042210
-4.641330	4.737240	0.043510
-4.641650	4.737590	0.044800
-4.641960	4.737920	0.046100
-4.642130	4.738110	0.047390
-4.642680	4.738690	0.048690
-4.642970	4.739000	0.049990
-4.643440	4.739490	0.051290
-4.643750	4.739830	0.052590
-4.644410	4.740520	0.053890
-4.644920	4.741060	0.055190
-4.645500	4.741660	0.056490
-4.646070	4.742260	0.057790
-4.646860	4.743090	0.059100
-4.647690	4.743960	0.060400
-4.648320	4.744610	0.061710
-4.649100	4.745430	0.063010
-4.650020	4.746380	0.064320
-4.651200	4.747600	0.065630
-4.652150	4.748590	0.066940
-4.653510	4.749990	0.068260
-4.654930	4.751460	0.069580
-4.656300	4.752870	0.070900
-4.657930	4.754560	0.072220
-4.660560	4.757250	0.073560
-4.663470	4.760240	0.074900
-4.675140	4.772170	0.076390
-4.666830	4.764400	-0.013110
-4.662130	4.759620	-0.011800
-4.659790	4.757250	-0.010490
-4.657590	4.755020	-0.009190
-4.655930	4.753350	-0.007890
-4.654560	4.751970	-0.006590
-4.652850	4.750240	-0.005290
-4.651840	4.749220	-0.003990
-4.650590	4.747970	-0.002700
-4.649540	4.746900	-0.001400
-4.648890	4.746270	-0.000100
-4.647920	4.745290	0.001190
-4.647060	4.744430	0.002490
-4.646410	4.743780	0.003780
-4.645830	4.743200	0.005080
-4.645100	4.742480	0.006370
-4.644650	4.742040	0.007670
-4.643980	4.741370	0.008960
-4.643400	4.740790	0.010250
-4.642850	4.740250	0.011550
-4.642380	4.739790	0.012840
-4.642290	4.739720	0.014140
-4.641910	4.739350	0.015430
-4.641450	4.738890	0.016720
-4.641220	4.738670	0.018020
-4.640980	4.738450	0.019310
-4.640560	4.738040	0.020600
-4.640470	4.737960	0.021900
-4.640210	4.737710	0.023190
-4.640120	4.737640	0.024480
-4.639970	4.737500	0.025780
-4.639840	4.737390	0.027070
-4.639880	4.737450	0.028370
-4.639710	4.737290	0.029660
-4.639600	4.737190	0.030950
-4.639760	4.737370	0.032250
-4.639940	4.737570	0.033540
-4.639960	4.737620	0.036130
-4.639870	4.737550	0.037420
-4.640130	4.737840	0.038710
-4.640330	4.738060	0.040010
-4.640420	4.738160	0.041300
-4.640800	4.738570	0.042600
-4.640940	4.738730	0.043900
-4.641170	4.738990	0.045190
-4.641580	4.739420	0.046490
-4.641930	4.739790	0.047790
-4.642390	4.740280	0.049090
-4.642660	4.740570	0.050390
-4.643200	4.741140	0.051690
-4.643760	4.741720	0.052990
-4.643960	4.741950	0.054290
-4.644640	4.742660	0.055590
-4.645340	4.743390	0.056900
-4.645980	4.744070	0.058200
-4.646590	4.744700	0.059500
-4.647520	4.745670	0.060810
-4.648290	4.746470	0.062120
-4.649110	4.747320	0.063430
-4.649920	4.748170	0.064730
-4.651300	4.749590	0.066050
-4.652420	4.750750	0.067360
-4.653550	4.751930	0.068680
-4.655070	4.753490	0.070000
-4.657180	4.755660	0.071330
-4.659240	4.757780	0.072660
-4.662150	4.760770	0.074010
-4.669250	4.768030	0.075420
-4.680520	4.780290	-0.013990
-4.668420	4.767950	-0.012650
-4.662210	4.761630	-0.011340
-4.659540	4.758920	-0.010030
-4.656870	4.756210	-0.008730
-4.655490	4.754820	-0.007430
-4.653750	4.753060	-0.006130
-4.652670	4.751970	-0.004830
-4.651250	4.750540	-0.003530
-4.649890	4.749170	-0.002230
-4.649020	4.748300	-0.000940
-4.648060	4.747330	0.000360
-4.647180	4.746450	0.001660
-4.646550	4.745820	0.002950
-4.645820	4.745090	0.004250
-4.645200	4.744480	0.005540
-4.644330	4.743610	0.006840
-4.644140	4.743430	0.008130
-4.643380	4.742670	0.009430
-4.642890	4.742200	0.010720
-4.642450	4.741770	0.012010
-4.641930	4.741250	0.013310
-4.641660	4.740990	0.014600
-4.641440	4.740780	0.015890
-4.640920	4.740270	0.017180
-4.640640	4.740000	0.018480
-4.640330	4.739700	0.019770
-4.640220	4.739600	0.021060
-4.639920	4.739320	0.022360
-4.639720	4.739120	0.023650
-4.639570	4.739000	0.024940
-4.639440	4.738880	0.026230
-4.639330	4.738780	0.027530
-4.639180	4.738640	0.028820
-4.639240	4.738720	0.030110
-4.639270	4.738780	0.031410
-4.639180	4.738700	0.032700
-4.639310	4.738850	0.033990
-4.639390	4.738950	0.035290
-4.639540	4.739110	0.036580
-4.639530	4.739120	0.037880
-4.639650	4.739270	0.039170
-4.639840	4.739470	0.040470
-4.639990	4.739650	0.041760
-4.640310	4.739990	0.043060
-4.640450	4.740150	0.044350
-4.640960	4.740690	0.045650
-4.641200	4.740950	0.046950
-4.641500	4.741270	0.048250
-4.641880	4.741680	0.049540
-4.642460	4.742290	0.050840
-4.642770	4.742620	0.052140
-4.643080	4.742950	0.053440
-4.643730	4.743630	0.054740
-4.644550	4.744490	0.056050
-4.645260	4.745230	0.057350
-4.645970	4.745980	0.058660
-4.646400	4.746430	0.059960
-4.647190	4.747250	0.061260
-4.648160	4.748260	0.062570
-4.649030	4.749170	0.063880
-4.650170	4.750350	0.065190
-4.651500	4.751730	0.066510
-4.652790	4.753050	0.067820
-4.654090	4.754410	0.069140
-4.655850	4.756220	0.070470
-4.657880	4.758310	0.071800
-4.660870	4.761380	0.073140
-4.666920	4.767570	0.074540
-4.678320	4.779240	0.076030
-4.680060	4.781750	-0.013510
-4.669050	4.770520	-0.012180
-4.662460	4.763810	-0.010860
-4.658510	4.759790	-0.009560
-4.656510	4.757770	-0.008250
-4.654600	4.755830	-0.006950
-4.653210	4.754430	-0.005660
-4.651850	4.753060	-0.004360
-4.650430	4.751630	-0.003060
-4.649740	4.750930	-0.001760
-4.648490	4.749680	-0.000470
-4.647610	4.748800	0.000830
-4.646750	4.747940	0.002120
-4.645850	4.747030	0.003420
-4.645220	4.746400	0.004710
-4.644620	4.745810	0.006010
-4.643860	4.745050	0.007300
-4.643370	4.744570	0.008590
-4.642690	4.743890	0.009890
-4.642290	4.743500	0.011180
-4.641730	4.742950	0.012470
-4.641570	4.742800	0.013770
-4.641020	4.742250	0.015060
-4.640600	4.741840	0.016350
-4.640430	4.741690	0.017640
-4.640140	4.741400	0.018940
-4.639900	4.741170	0.020230
-4.639460	4.740750	0.021520
-4.639320	4.740620	0.022810
-4.639130	4.740440	0.024110
-4.639050	4.740380	0.025400
-4.638840	4.740180	0.026690
-4.638800	4.740150	0.027980
-4.638780	4.740150	0.029280
-4.638710	4.740100	0.030570
-4.638780	4.740190	0.031860
-4.638910	4.740340	0.033160
-4.638970	4.740420	0.034450
-4.638850	4.740310	0.035750
-4.639060	4.740540	0.037040
-4.639130	4.740630	0.038330
-4.639180	4.740700	0.039630
-4.639410	4.740950	0.040920
-4.639670	4.741230	0.042220
-4.640050	4.741630	0.043520
-4.640360	4.741980	0.044810
-4.640650	4.742290	0.046110
-4.640960	4.742620	0.047410
-4.641540	4.743230	0.048710
-4.641740	4.743460	0.050010
-4.642300	4.744040	0.051310
-4.642700	4.744460	0.052610
-4.643160	4.744960	0.053910
-4.643660	4.745490	0.055210
-4.644320	4.746170	0.056510
-4.645080	4.746970	0.057810
-4.645690	4.747610	0.059120
-4.646710	4.748660	0.060420
-4.647470	4.749460	0.061730
-4.648560	4.750590	0.063040
-4.649390	4.751460	0.064350
-4.650710	4.752820	0.065660
-4.651950	4.754100	0.066980
-4.653480	4.755690	0.068300
-4.654900	4.757150	0.069620
-4.657010	4.759330	0.070950
-4.659760	4.762150	0.072290
-4.665610	4.768140	0.073680
-4.676920	4.779720	0.075160
-4.693410	4.796580	0.076740
-4.685280	4.788930	-0.013750
-4.675110	4.778550	-0.012410
-4.666430	4.769700	-0.011090
-4.660190	4.763340	-0.009770
-4.657290	4.760390	-0.008470
-4.655220	4.758290	-0.007170
-4.653780	4.756840	-0.005870
-4.651880	4.754920	-0.004570
-4.650860	4.753880	-0.003270
-4.649640	4.752660	-0.001970
-4.648450	4.751450	-0.000670
-4.647490	4.750490	0.000620
-4.646730	4.749730	0.001920
-4.645850	4.748860	0.003220
-4.645110	4.748120	0.004510
-4.644370	4.747370	0.005810
-4.643800	4.746800	0.007100
-4.642980	4.745980	0.008390
-4.642570	4.745590	0.009690
-4.641880	4.744900	0.010980
-4.641460	4.744480	0.012270
-4.641220	4.744250	0.013570
-4.640820	4.743860	0.014860
-4.640510	4.743560	0.016150
-4.640060	4.743120	0.017450
-4.639710	4.742780	0.018740
-4.639530	4.742610	0.020030
-4.639360	4.742450	0.021330
-4.639030	4.742140	0.022620
-4.638970	4.742090	0.023910
-4.638580	4.741710	0.025200
-4.638650	4.741800	0.026500
-4.638590	4.741750	0.027790
-4.638600	4.741770	0.029080
-4.638510	4.741700	0.030380
-4.638310	4.741550	0.031670
-4.638470	4.741720	0.032960
-4.638440	4.741710	0.034260
-4.638580	4.741860	0.035550
-4.638760	4.742070	0.036850
-4.638830	4.742160	0.038140
-4.639030	4.742380	0.039440
-4.639160	4.742530	0.040740
-4.639230	4.742620	0.042030
-4.639800	4.743220	0.043330
-4.639870	4.743310	0.044630
-4.639950	4.743410	0.045920
-4.640620	4.744100	0.047220
-4.640960	4.744480	0.048520
-4.641310	4.744850	0.049820
-4.641920	4.745480	0.051120
-4.642330	4.745930	0.052420
-4.642760	4.746380	0.053720
-4.643410	4.747070	0.055020
-4.643930	4.747610	0.056320
-4.644790	4.748510	0.057620
-4.645550	4.749300	0.058930
-4.646270	4.750050	0.060230
-4.647220	4.751040	0.061540
-4.647870	4.751720	0.062840
-4.649240	4.753140	0.064160
-4.650350	4.754300	0.065470
-4.651930	4.755930	0.066790
-4.653220	4.757260	0.068110
-4.654880	4.758980	0.069430
-4.656810	4.760960	0.070760
-4.660580	4.764830	0.072120
-4.669230	4.773690	0.073560
-4.679060	4.783760	0.075020
-4.689040	4.793980	0.076490
-4.686730	4.792280	-0.013710
-4.680490	4.785920	-0.012390
-4.671010	4.776240	-0.011060
-4.662480	4.767540	-0.009740
-4.658310	4.763290	-0.008430
-4.655520	4.760460	-0.007130
-4.653740	4.758660	-0.005830
-4.652210	4.757110	-0.004530
-4.651170	4.756060	-0.003230
-4.649720	4.754600	-0.001930
-4.648540	4.753410	-0.000630
-4.647710	4.752580	0.000660
-4.646690	4.751550	0.001960
-4.645790	4.750640	0.003250
-4.644850	4.749700	0.004550
-4.644220	4.749070	0.005840
-4.643480	4.748320	0.007130
-4.642810	4.747650	0.008430
-4.642210	4.747060	0.009720
-4.641820	4.746670	0.011010
-4.641360	4.746220	0.012310
-4.640780	4.745630	0.013600
-4.640500	4.745370	0.014890
-4.640010	4.744880	0.016190
-4.639730	4.744620	0.017480
-4.639720	4.744620	0.018770
-4.639160	4.744070	0.020070
-4.639020	4.743940	0.021360
-4.638840	4.743770	0.022650
-4.638410	4.743350	0.023950
-4.638380	4.743340	0.025240
-4.638260	4.743230	0.026530
-4.638230	4.743220	0.027830
-4.638250	4.743260	0.029120
-4.638230	4.743250	0.030420
-4.638130	4.743160	0.031710
-4.638110	4.743160	0.033000
-4.638240	4.743310	0.034300
-4.638240	4.743330	0.035590
-4.638360	4.743470	0.036890
-4.638590	4.743730	0.038180
-4.638630	4.743780	0.039480
-4.638810	4.743990	0.040770
-4.639130	4.744330	0.042070
-4.639250	4.744470	0.043370
-4.639530	4.744770	0.044660
-4.640130	4.745400	0.045960
-4.640300	4.745590	0.047260
-4.640700	4.746020	0.048560
-4.641050	4.746390	0.049860
-4.641530	4.746900	0.051160
-4.642030	4.747430	0.052460
-4.642600	4.748030	0.053760
-4.643390	4.748850	0.055060
-4.644170	4.749670	0.056370
-4.644630	4.750150	0.057670
-4.645280	4.750840	0.058970
-4.646240	4.751840	0.060280
-4.647050	4.752690	0.061590
-4.648000	4.753670	0.062900
-4.649110	4.754830	0.064210
-4.650600	4.756360	0.065530
-4.652100	4.757910	0.066850
-4.653340	4.759200	0.068160
-4.655480	4.761410	0.069490
-4.658480	4.764490	0.070840
-4.664810	4.770980	0.072240
-4.673410	4.779790	0.073670
-4.681100	4.787670	0.075100
-4.688300	4.795050	0.076520
-4.684190	4.791540	-0.013420
-4.680470	4.787750	-0.012100
-4.674550	4.781710	-0.010780
-4.664980	4.771940	-0.009460
-4.658970	4.765820	-0.008150
-4.655960	4.762750	-0.006850
-4.653640	4.760400	-0.005550
-4.652030	4.758770	-0.004250
-4.650710	4.757440	-0.002950
-4.649870	4.756600	-0.001650
-4.648260	4.754970	-0.000360
-4.647070	4.753760	0.000940
-4.646500	4.753200	0.002230
-4.645440	4.752130	0.003530
-4.644500	4.751190	0.004820
-4.644040	4.750740	0.006120
-4.643180	4.749870	0.007410
-4.642580	4.749280	0.008710
-4.642030	4.748730	0.010000
-4.641570	4.748280	0.011300
-4.640970	4.747680	0.012590
-4.640470	4.747190	0.013880
-4.640210	4.746940	0.015180
-4.639810	4.746550	0.016470
-4.639420	4.746160	0.017760
-4.639190	4.745950	0.019060
-4.638800	4.745570	0.020350
-4.638770	4.745550	0.021650
-4.638570	4.745360	0.022940
-4.638190	4.745000	0.024230
-4.638080	4.744900	0.025530
-4.638160	4.745000	0.026820
-4.637720	4.744560	0.028120
-4.637890	4.744760	0.029410
-4.637740	4.744620	0.030710
-4.637870	4.744760	0.032000
-4.637760	4.744670	0.033290
-4.637890	4.744820	0.034590
-4.637960	4.744910	0.035880
-4.637880	4.744850	0.037180
-4.638380	4.745380	0.038480
-4.638430	4.745440	0.039770
-4.638630	4.745670	0.041070
-4.638820	4.745880	0.042360
-4.639050	4.746130	0.043660
-4.639570	4.746680	0.044960
-4.639670	4.746800	0.046250
-4.640080	4.747240	0.047550
-4.640490	4.747670	0.048850
-4.641140	4.748360	0.050150
-4.641490	4.748730	0.051450
-4.641950	4.749210	0.052750
-4.642690	4.750000	0.054060
-4.643340	4.750670	0.055360
-4.643890	4.751260	0.056660
-4.644830	4.752240	0.057970
-4.645390	4.752820	0.059270
-4.646520	4.753990	0.060580
-4.647250	4.754760	0.061890
-4.648540	4.756100	0.063200
-4.649910	4.757520	0.064520
-4.651150	4.758800	0.065840
-4.652770	4.760470	0.067160
-4.654980	4.762750	0.068490
-4.657660	4.765510	0.069830
-4.663470	4.771470	0.071220
-4.672500	4.780720	0.072660
-4.678970	4.787350	0.074070
-4.682770	4.791260	0.075430
-4.695780	4.804590	0.076950
-4.689040	4.798350	-0.014200
-4.682950	4.792140	-0.012870
-4.680800	4.789950	-0.011560
-4.676170	4.785230	-0.010250
-4.667890	4.776770	-0.008930
-4.659860	4.768580	-0.007610
-4.656060	4.764710	-0.006310
-4.653680	4.762290	-0.005010
-4.652040	4.760630	-0.003710
-4.650600	4.759170	-0.002410
-4.649400	4.757970	-0.001110
-4.648160	4.756710	0.000190
-4.646670	4.755200	0.001480
-4.645870	4.754400	0.002780
-4.645210	4.753750	0.004080
-4.644160	4.752690	0.005370
-4.643620	4.752160	0.006670
-4.642860	4.751390	0.007960
-4.642010	4.750540	0.009260
-4.641390	4.749920	0.010550
-4.641380	4.749930	0.011850
-4.640610	4.749160	0.013140
-4.639890	4.748440	0.014430
-4.639830	4.748390	0.015730
-4.639620	4.748200	0.017020
-4.639140	4.747730	0.018320
-4.638910	4.747500	0.019610
-4.638530	4.747130	0.020900
-4.638350	4.746970	0.022200
-4.638060	4.746690	0.023490
-4.637960	4.746600	0.024780
-4.637630	4.746280	0.026070
-4.637750	4.746430	0.027370
-4.637580	4.746270	0.028660
-4.637600	4.746300	0.029960
-4.637690	4.746420	0.031250
-4.637520	4.746250	0.032540
-4.637660	4.746420	0.033840
-4.637580	4.746350	0.035130
-4.637600	4.746390	0.036430
-4.637860	4.746670	0.037720
-4.638230	4.747070	0.039020
-4.638280	4.747140	0.040310
-4.638290	4.747160	0.041610
-4.638500	4.747400	0.042900
-4.639130	4.748060	0.044200
-4.639350	4.748300	0.045500
-4.639820	4.748800	0.046800
-4.640100	4.749110	0.048100
-4.640550	4.749580	0.049400
-4.641170	4.750240	0.050700
-4.641730	4.750820	0.052000
-4.642360	4.751490	0.053300
-4.642860	4.752010	0.054600
-4.643640	4.752830	0.055910
-4.644330	4.753550	0.057210
-4.644900	4.754150	0.058510
-4.646160	4.755450	0.059820
-4.646850	4.756180	0.061130
-4.648000	4.757380	0.062440
-4.649360	4.758780	0.063760
-4.650570	4.760040	0.065070
-4.652440	4.761970	0.066400
-4.654250	4.763840	0.067720
-4.657690	4.767370	0.069070
-4.663630	4.773470	0.070460
-4.671610	4.781660	0.071890
-4.678750	4.788980	0.073300
-4.680310	4.790590	0.074630
-4.683840	4.794220	0.076000
-4.681860	4.792890	-0.012950
-4.679890	4.790900	-0.011640
-4.678520	4.789520	-0.010330
-4.673160	4.784050	-0.009020
-4.664900	4.775610	-0.007700
-4.657940	4.768500	-0.006390
-4.654820	4.765330	-0.005090
-4.652440	4.762910	-0.003790
-4.650840	4.761290	-0.002490
-4.649450	4.759880	-0.001190
-4.648160	4.758580	0.000110
-4.647270	4.757680	0.001400
-4.645850	4.756250	0.002700
-4.645100	4.755500	0.004000
-4.644190	4.754580	0.005290
-4.643370	4.753770	0.006590
-4.642830	4.753230	0.007880
-4.642100	4.752490	0.009180
-4.641390	4.751780	0.010470
-4.640840	4.751240	0.011770
-4.640510	4.750930	0.013060
-4.639990	4.750410	0.014350
-4.639580	4.750010	0.015650
-4.639270	4.749700	0.016940
-4.638920	4.749370	0.018230
-4.638620	4.749080	0.019530
-4.638360	4.748820	0.020820
-4.638050	4.748520	0.022110
-4.637800	4.748290	0.023410
-4.637650	4.748150	0.024700
-4.637620	4.748130	0.025990
-4.637410	4.747940	0.027280
-4.637390	4.747940	0.028580
-4.637330	4.747890	0.029870
-4.637280	4.747860	0.031160
-4.637330	4.747920	0.032460
-4.637380	4.747990	0.033750
-4.637590	4.748230	0.035050
-4.637490	4.748140	0.036350
-4.637700	4.748370	0.037640
-4.637760	4.748450	0.038940
-4.638070	4.748790	0.040240
-4.638250	4.748990	0.041530
-4.638570	4.749330	0.042830
-4.638730	4.749510	0.044130
-4.639210	4.750020	0.045430
-4.639620	4.750460	0.046730
-4.639930	4.750790	0.048030
-4.640560	4.751460	0.049330
-4.640930	4.751850	0.050630
-4.641500	4.752460	0.051930
-4.642090	4.753070	0.053230
-4.642780	4.753800	0.054540
-4.643500	4.754550	0.055840
-4.644320	4.755410	0.057150
-4.645390	4.756520	0.058460
-4.645900	4.757060	0.059760
-4.647220	4.758430	0.061080
-4.648270	4.759520	0.062390
-4.649470	4.760760	0.063700
-4.651240	4.762590	0.065020
-4.652760	4.764160	0.066340
-4.655300	4.766790	0.067680
-4.661000	4.772630	0.069060
-4.668930	4.780770	0.070480
-4.676490	4.788530	0.071900
-4.679340	4.791470	0.073250
-4.682630	4.794870	0.075920
-4.685200	4.798190	-0.014200
-4.680880	4.793770	-0.012880
-4.679860	4.792750	-0.011570
-4.678740	4.791620	-0.010260
-4.676850	4.789700	-0.008950
-4.671530	4.784270	-0.007640
-4.663270	4.775830	-0.006330
-4.657150	4.769590	-0.005020
-4.653220	4.765580	-0.003710
-4.651250	4.763580	-0.002410
-4.650190	4.762510	-0.001110
-4.648420	4.760720	0.000180
-4.647120	4.759400	0.001480
-4.646260	4.758540	0.002780
-4.645440	4.757720	0.004080
-4.644390	4.756660	0.005370
-4.643430	4.755690	0.006670
-4.642880	4.755140	0.007960
-4.642140	4.754400	0.009260
-4.641320	4.753580	0.010550
-4.640970	4.753240	0.011850
-4.640660	4.752940	0.013140
-4.639800	4.752070	0.014430
-4.639590	4.751880	0.015730
-4.638950	4.751240	0.017020
-4.638750	4.751060	0.018310
-4.638530	4.750850	0.019610
-4.637960	4.750280	0.020900
-4.637800	4.750140	0.022190
-4.637730	4.750070	0.023490
-4.637750	4.750120	0.024780
-4.637510	4.749890	0.026080
-4.637400	4.749790	0.027370
-4.637350	4.749760	0.028660
-4.636930	4.749340	0.029960
-4.637240	4.749680	0.031250
-4.637130	4.749580	0.032550
-4.637170	4.749650	0.033840
-4.637310	4.749800	0.035140
-4.637470	4.749990	0.036430
-4.637450	4.749980	0.037730
-4.637760	4.750320	0.039030
-4.637780	4.750350	0.040320
-4.638000	4.750600	0.041620
-4.638600	4.751230	0.042920
-4.638750	4.751400	0.044220
-4.639190	4.751870	0.045520
-4.639440	4.752140	0.046820
-4.639900	4.752630	0.048120
-4.640410	4.753170	0.049420
-4.640970	4.753760	0.050730
-4.641500	4.754320	0.052030
-4.642310	4.755160	0.053330
-4.642910	4.755790	0.054640
-4.643400	4.756320	0.055940
-4.644580	4.757540	0.057250
-4.645380	4.758380	0.058560
-4.646410	4.759450	0.059870
-4.647670	4.760760	0.061180
-4.648780	4.761910	0.062500
-4.650180	4.763360	0.063810
-4.652140	4.765380	0.065140
-4.654660	4.767980	0.066470
-4.659540	4.773000	0.067850
-4.668000	4.781680	0.069270
-4.674340	4.788190	0.070670
-4.677780	4.791730	0.072030
-4.679390	4.793400	0.073360
-4.679960	4.794000	0.074670
-4.683200	4.797330	0.076030
-4.684030	4.798920	-0.014000
-4.679660	4.794470	-0.012680
-4.679030	4.793840	-0.011370
-4.678210	4.793020	-0.010060
-4.676600	4.791380	-0.008750
-4.674730	4.789480	-0.007440
-4.668830	4.783450	-0.006130
-4.661750	4.776220	-0.004820
-4.654670	4.768990	-0.003510
-4.652430	4.766710	-0.002210
-4.650650	4.764910	-0.000910
-4.648940	4.763170	0.000390
-4.647640	4.761860	0.001680
-4.646430	4.760640	0.002980
-4.645310	4.759510	0.004280
-4.644370	4.758560	0.005570
-4.643430	4.757610	0.006870
-4.642800	4.756980	0.008170
-4.642210	4.756390	0.009460
-4.641530	4.755720	0.010760
-4.640780	4.754970	0.012050
-4.640340	4.754530	0.013350
-4.639690	4.753890	0.014640
-4.639180	4.753380	0.015930
-4.638870	4.753080	0.017230
-4.638670	4.752890	0.018520
-4.638320	4.752550	0.019810
-4.638200	4.752440	0.021110
-4.637780	4.752030	0.022400
-4.637740	4.752010	0.023700
-4.637500	4.751780	0.024990
-4.637170	4.751460	0.026280
-4.637260	4.751560	0.027580
-4.637040	4.751360	0.028870
-4.637090	4.751430	0.030170
-4.636950	4.751300	0.031460
-4.637120	4.751500	0.032760
-4.637190	4.751580	0.034060
-4.637230	4.751640	0.035350
-4.637500	4.751940	0.036650
-4.637430	4.751880	0.037950
-4.637780	4.752250	0.039250
-4.637930	4.752430	0.040540
-4.638080	4.752600	0.041840
-4.638520	4.753060	0.043140
-4.638680	4.753240	0.044440
-4.639060	4.753660	0.045740
-4.639440	4.754060	0.047040
-4.640100	4.754750	0.048340
-4.640370	4.755050	0.049640
-4.640930	4.755640	0.050940
-4.641730	4.756470	0.052240
-4.642320	4.757090	0.053550
-4.643170	4.757980	0.054850
-4.643900	4.758750	0.056160
-4.644990	4.759880	0.057470
-4.645800	4.760730	0.058780
-4.647120	4.762100	0.060090
-4.648040	4.763060	0.061400
-4.649640	4.764720	0.062720
-4.651810	4.766960	0.064050
-4.653710	4.768920	0.065380
-4.659260	4.774620	0.066760
-4.666550	4.782110	0.068170
-4.673280	4.789020	0.069570
-4.675910	4.791730	0.070920
-4.677490	4.793360	0.072250
-4.678040	4.793950	0.073560
-4.679270	4.795220	0.074890
-4.684360	4.800460	0.076280
-4.681990	4.798750	-0.013720
-4.678980	4.795680	-0.012410
-4.677590	4.794270	-0.011100
-4.676920	4.793610	-0.009790
-4.677450	4.794160	-0.008490
-4.675540	4.792220	-0.007180
-4.672370	4.788990	-0.005870
-4.665130	4.781590	-0.004560
-4.657620	4.773910	-0.003250
-4.653650	4.769860	-0.001950
-4.651080	4.767240	-0.000650
-4.649340	4.765480	0.000650
-4.647720	4.763840	0.001950
-4.646790	4.762900	0.003250
-4.645770	4.761880	0.004540
-4.644470	4.760560	0.005840
-4.643580	4.759660	0.007140
-4.642680	4.758760	0.008430
-4.642300	4.758390	0.009730
-4.641340	4.757420	0.011020
-4.640910	4.757000	0.012320
-4.640160	4.756240	0.013610
-4.639700	4.755790	0.014910
-4.639690	4.755800	0.016210
-4.638950	4.755060	0.017500
-4.638530	4.754650	0.018800
-4.638390	4.754520	0.020090
-4.637970	4.754100	0.021380
-4.637640	4.753790	0.022680
-4.637520	4.753670	0.023970
-4.637220	4.753390	0.025260
-4.637090	4.753270	0.026560
-4.637150	4.753350	0.027850
-4.636990	4.753200	0.029150
-4.637120	4.753350	0.030440
-4.636810	4.753050	0.031730
-4.636910	4.753170	0.033030
-4.636960	4.753240	0.034320
-4.637200	4.753500	0.035620
-4.637290	4.753610	0.036920
-4.637310	4.753650	0.038210
-4.637750	4.754120	0.039510
-4.637840	4.754220	0.040810
-4.638050	4.754460	0.042110
-4.638400	4.754840	0.043410
-4.638910	4.755380	0.044710
-4.639140	4.755630	0.046010
-4.639690	4.756210	0.047310
-4.640150	4.756700	0.048610
-4.640800	4.757380	0.049910
-4.641060	4.757670	0.051210
-4.641930	4.758570	0.052520
-4.642800	4.759490	0.053820
-4.643670	4.760400	0.055130
-4.644320	4.761080	0.056430
-4.645210	4.762000	0.057740
-4.646470	4.763320	0.059060
-4.647880	4.764780	0.060370
-4.649220	4.766160	0.061690
-4.651440	4.768460	0.063020
-4.654520	4.771630	0.064360
-4.659720	4.776980	0.065730
-4.666230	4.783670	0.067120
-4.672990	4.790620	0.068530
-4.675880	4.793590	0.069870
-4.676800	4.794560	0.071190
-4.677270	4.795050	0.072510
-4.677750	4.795570	0.073820
-4.678800	4.796660	0.075140
-4.690350	4.808510	0.076640
-4.679610	4.798240	-0.013420
-4.677260	4.795850	-0.012100
-4.675840	4.794420	-0.010790
-4.676580	4.795190	-0.009490
-4.675540	4.794150	-0.008180
-4.675580	4.794200	-0.006870
-4.674490	4.793110	-0.005560
-4.670150	4.788670	-0.004250
-4.662040	4.780380	-0.002940
-4.655500	4.773690	-0.001640
-4.652490	4.770620	-0.000340
-4.650030	4.768110	0.000960
-4.648640	4.766700	0.002260
-4.647000	4.765040	0.003560
-4.645540	4.763560	0.004850
-4.644920	4.762940	0.006150
-4.644280	4.762310	0.007450
-4.643020	4.761040	0.008740
-4.642240	4.760250	0.010040
