-7.086260	2.517030	0.004960
-7.070040	2.511280	0.006410
-7.054820	2.505890	0.007860
-7.049120	2.503880	0.009310
-7.045590	2.502640	0.010760
-7.042600	2.501600	0.012220
-7.040090	2.500720	0.013670
-7.037480	2.499810	0.015120
-7.035800	2.499220	0.016570
-7.034280	2.498700	0.018030
-7.032630	2.498130	0.019480
-7.030960	2.497550	0.020930
-7.029650	2.497100	0.022380
-7.028660	2.496760	0.023830
-7.027520	2.496370	0.025280
-7.026250	2.495940	0.026730
-7.025420	2.495660	0.028180
-7.024670	2.495410	0.029630
-7.023790	2.495110	0.031080
-7.022920	2.494820	0.032530
-7.022110	2.494550	0.033980
-7.021510	2.494350	0.035430
-7.021080	2.494220	0.036880
-7.020530	2.494030	0.038330
-7.019920	2.493830	0.039780
-7.019500	2.493700	0.041230
-7.018950	2.493520	0.042680
-7.018760	2.493460	0.044130
-7.018320	2.493320	0.045580
-7.018060	2.493250	0.047030
-7.017830	2.493180	0.048490
-7.017770	2.493170	0.049940
-7.017550	2.493110	0.051390
-7.017600	2.493140	0.052840
-7.017400	2.493080	0.054300
-7.017280	2.493050	0.055750
-7.017180	2.493030	0.057200
-7.017240	2.493070	0.058650
-7.017360	2.493120	0.060110
-7.017660	2.493250	0.061560
-7.017780	2.493300	0.063020
-7.018110	2.493430	0.064470
-7.017980	2.493400	0.065920
-7.018330	2.493540	0.067380
-7.018410	2.493580	0.068830
-7.019090	2.493840	0.070290
-7.019370	2.493950	0.071750
-7.019920	2.494160	0.073210
-7.020330	2.494320	0.074660
-7.021150	2.494620	0.076120
-7.021710	2.494830	0.077590
-7.022150	2.495000	0.079040
-7.022830	2.495250	0.080510
-7.024090	2.495710	0.081980
-7.024760	2.495960	0.083440
-7.025600	2.496270	0.084900
-7.026670	2.496670	0.086370
-7.027530	2.496990	0.087840
-7.028750	2.497440	0.089310
-7.029990	2.497890	0.090780
-7.031560	2.498460	0.092260
-7.032930	2.498960	0.093730
-7.034540	2.499550	0.095210
-7.036290	2.500180	0.096690
-7.038550	2.501000	0.098170
-7.040160	2.501590	0.099650
-7.042650	2.502490	0.101150
-7.045800	2.503620	0.102650
-7.045180	2.503410	0.104100
-7.085460	2.517960	-0.034350
-7.089750	2.519500	-0.032910
-7.088720	2.519150	-0.031430
-7.089200	2.519330	-0.029970
-7.091230	2.520070	-0.028510
-7.089960	2.519630	-0.027040
-7.090150	2.519710	-0.025570
-7.089510	2.519500	-0.024100
-7.090960	2.520030	-0.022640
-7.090100	2.519740	-0.021170
-7.090150	2.519770	-0.019710
-7.090560	2.519930	-0.018240
-7.090370	2.519880	-0.016770
-7.088660	2.519290	-0.015300
-7.090270	2.519870	-0.013840
-7.089400	2.519580	-0.012370
-7.089690	2.519690	-0.010900
-7.090860	2.520130	-0.009440
-7.089990	2.519830	-0.007970
-7.089720	2.519750	-0.006500
-7.090860	2.520170	-0.005030
-7.090610	2.520100	-0.003570
-7.090660	2.520130	-0.002100
-7.090360	2.520030	-0.000630
-7.090090	2.519950	0.000840
-7.088980	2.519570	0.002300
-7.088680	2.519480	0.003770
-7.083470	2.517640	0.005240
-7.063140	2.510440	0.006690
-7.051830	2.506430	0.008130
-7.047350	2.504850	0.009590
-7.044050	2.503700	0.011040
-7.040840	2.502570	0.012500
-7.039020	2.501940	0.013950
-7.036890	2.501200	0.015410
-7.034640	2.500410	0.016860
-7.033560	2.500040	0.018310
-7.031520	2.499330	0.019760
-7.030310	2.498910	0.021210
-7.028660	2.498340	0.022660
-7.027850	2.498070	0.024110
-7.027040	2.497790	0.025560
-7.025910	2.497410	0.027010
-7.024680	2.496980	0.028460
-7.023790	2.496690	0.029910
-7.023110	2.496460	0.031360
-7.022220	2.496160	0.032810
-7.021440	2.495890	0.034260
-7.021140	2.495800	0.035710
-7.020220	2.495490	0.037160
-7.019940	2.495400	0.038610
-7.019180	2.495150	0.040060
-7.018910	2.495060	0.041510
-7.018480	2.494920	0.042960
-7.018030	2.494780	0.044400
-7.017750	2.494690	0.045850
-7.017540	2.494640	0.047300
-7.017370	2.494590	0.048760
-7.016970	2.494460	0.050210
-7.016860	2.494440	0.051660
-7.016810	2.494430	0.053110
-7.016830	2.494450	0.054560
-7.016800	2.494460	0.056020
-7.016680	2.494430	0.057470
-7.016850	2.494500	0.058920
-7.016910	2.494540	0.060380
-7.016960	2.494570	0.061830
-7.017140	2.494650	0.063280
-7.017470	2.494780	0.064740
-7.017610	2.494840	0.066190
-7.017920	2.494970	0.067650
-7.018260	2.495110	0.069110
-7.018640	2.495260	0.070560
-7.018920	2.495370	0.072020
-7.019760	2.495680	0.073480
-7.020150	2.495830	0.074940
-7.020400	2.495940	0.076390
-7.021620	2.496380	0.077860
-7.021790	2.496460	0.079320
-7.022870	2.496860	0.080780
-7.023500	2.497090	0.082240
-7.024310	2.497400	0.083710
-7.025030	2.497670	0.085170
-7.026620	2.498250	0.086640
-7.027280	2.498500	0.088110
-7.028420	2.498920	0.089570
-7.029770	2.499410	0.091050
-7.031350	2.499990	0.092520
-7.032810	2.500520	0.094000
-7.034320	2.501070	0.095470
-7.036030	2.501690	0.096950
-7.037690	2.502300	0.098440
-7.039960	2.503120	0.099930
-7.043080	2.504240	0.101430
-7.045360	2.505060	0.102920
-7.044050	2.504610	0.104360
-7.084550	2.519230	-0.034400
-7.087620	2.520330	-0.032940
-7.088400	2.520620	-0.031480
-7.088840	2.520790	-0.030010
-7.088610	2.520730	-0.028550
-7.088180	2.520590	-0.027080
-7.089590	2.521100	-0.025610
-7.089260	2.521000	-0.024140
-7.089120	2.520970	-0.022680
-7.087370	2.520360	-0.021210
-7.088590	2.520810	-0.019740
-7.089500	2.521140	-0.018280
-7.088130	2.520670	-0.016810
-7.089140	2.521050	-0.015340
-7.087690	2.520540	-0.013880
-7.089670	2.521260	-0.012410
-7.089400	2.521180	-0.010950
-7.088500	2.520880	-0.009480
-7.088300	2.520820	-0.008010
-7.088570	2.520930	-0.006550
-7.088940	2.521070	-0.005080
-7.088640	2.520980	-0.003610
-7.089250	2.521210	-0.002140
-7.088350	2.520910	-0.000680
-7.087610	2.520660	0.000790
-7.088790	2.521090	0.002260
-7.087170	2.520530	0.003720
-7.082210	2.518780	0.005190
-7.063650	2.512200	0.006640
-7.051510	2.507900	0.008080
-7.046490	2.506130	0.009530
-7.043470	2.505070	0.010990
-7.041010	2.504210	0.012440
-7.038560	2.503350	0.013890
-7.036730	2.502710	0.015340
-7.034340	2.501880	0.016790
-7.033120	2.501460	0.018250
-7.031010	2.500720	0.019690
-7.029450	2.500180	0.021140
-7.028620	2.499900	0.022600
-7.027360	2.499470	0.024050
-7.026280	2.499100	0.025500
-7.025160	2.498720	0.026950
-7.024460	2.498480	0.028400
-7.023520	2.498160	0.029850
-7.022460	2.497800	0.031300
-7.021940	2.497630	0.032750
-7.021200	2.497380	0.034200
-7.020500	2.497140	0.035650
-7.019620	2.496840	0.037100
-7.019200	2.496710	0.038550
-7.018860	2.496600	0.040000
-7.018270	2.496410	0.041450
-7.017870	2.496280	0.042900
-7.017520	2.496170	0.044350
-7.017100	2.496030	0.045800
-7.016940	2.495990	0.047260
-7.016660	2.495910	0.048710
-7.016680	2.495930	0.050160
-7.016470	2.495870	0.051620
-7.016230	2.495800	0.053070
-7.016000	2.495730	0.054520
-7.016290	2.495850	0.055980
-7.016170	2.495820	0.057430
-7.016170	2.495830	0.058880
-7.016290	2.495890	0.060330
-7.016500	2.495980	0.061780
-7.016730	2.496080	0.063230
-7.016970	2.496180	0.064690
-7.017060	2.496220	0.066140
-7.017550	2.496410	0.067600
-7.017870	2.496540	0.069050
-7.018160	2.496660	0.070500
-7.018490	2.496790	0.071960
-7.019030	2.496990	0.073420
-7.019430	2.497150	0.074880
-7.020220	2.497450	0.076340
-7.020450	2.497540	0.077790
-7.021580	2.497960	0.079260
-7.022040	2.498130	0.080720
-7.022940	2.498470	0.082190
-7.023740	2.498770	0.083650
-7.024770	2.499150	0.085120
-7.025710	2.499500	0.086580
-7.026670	2.499850	0.088050
-7.027980	2.500340	0.089520
-7.029070	2.500740	0.090990
-7.030520	2.501270	0.092460
-7.031900	2.501770	0.093940
-7.033750	2.502440	0.095420
-7.035560	2.503100	0.096900
-7.037140	2.503680	0.098370
-7.039810	2.504640	0.099870
-7.042390	2.505570	0.101360
-7.044400	2.506300	0.102850
-7.045180	2.506590	0.104320
-7.078270	2.518510	-0.035170
-7.085890	2.521240	-0.033740
-7.086800	2.521570	-0.032280
-7.086340	2.521420	-0.030810
-7.087380	2.521800	-0.029350
-7.087440	2.521840	-0.027880
-7.087240	2.521780	-0.026410
-7.087440	2.521870	-0.024950
-7.087030	2.521740	-0.023480
-7.087000	2.521740	-0.022010
-7.088190	2.522180	-0.020550
-7.087850	2.522070	-0.019080
-7.087670	2.522020	-0.017610
-7.087480	2.521960	-0.016150
-7.087950	2.522150	-0.014680
-7.087450	2.521980	-0.013210
-7.089120	2.522590	-0.011750
-7.088290	2.522310	-0.010280
-7.087470	2.522030	-0.008810
-7.087630	2.522100	-0.007340
-7.088180	2.522310	-0.005880
-7.086840	2.521850	-0.004410
-7.087940	2.522250	-0.002940
-7.086950	2.521930	-0.000010
-7.086960	2.521950	0.001460
-7.086750	2.521890	0.002930
-7.085810	2.521560	0.004400
-7.072560	2.516860	0.005850
-7.055450	2.510790	0.007300
-7.048510	2.508340	0.008750
-7.044610	2.506960	0.010200
-7.041310	2.505800	0.011660
-7.039300	2.505100	0.013110
-7.037000	2.504300	0.014560
-7.034940	2.503580	0.016020
-7.033210	2.502970	0.017470
-7.031490	2.502380	0.018920
-7.030010	2.501860	0.020370
-7.028680	2.501400	0.021820
-7.027770	2.501090	0.023270
-7.026380	2.500610	0.024720
-7.025510	2.500320	0.026170
-7.024360	2.499920	0.027620
-7.023260	2.499540	0.029070
-7.022640	2.499340	0.030520
-7.021630	2.498990	0.031970
-7.020970	2.498770	0.033420
-7.020210	2.498510	0.034870
-7.019700	2.498350	0.036320
-7.019130	2.498160	0.037770
-7.018550	2.497960	0.039220
-7.017980	2.497770	0.040670
-7.017790	2.497720	0.042130
-7.017540	2.497650	0.043580
-7.016990	2.497470	0.045030
-7.016820	2.497420	0.046480
-7.016390	2.497280	0.047930
-7.016210	2.497230	0.049380
-7.015980	2.497160	0.050840
-7.015760	2.497090	0.052290
-7.015810	2.497120	0.053740
-7.015810	2.497140	0.055190
-7.015730	2.497120	0.056640
-7.015590	2.497090	0.058100
-7.015810	2.497180	0.059550
-7.015790	2.497190	0.061000
-7.016090	2.497310	0.062460
-7.016210	2.497370	0.063910
-7.016490	2.497490	0.065370
-7.016570	2.497530	0.066820
-7.017000	2.497700	0.068280
-7.017580	2.497920	0.069740
-7.017620	2.497960	0.071190
-7.018370	2.498240	0.072650
-7.018940	2.498460	0.074110
-7.019400	2.498630	0.075570
-7.019870	2.498820	0.077030
-7.020640	2.499110	0.078490
-7.021370	2.499380	0.079950
-7.021820	2.499550	0.081410
-7.023080	2.500020	0.082880
-7.023540	2.500200	0.084340
-7.024690	2.500620	0.085800
-7.025530	2.500930	0.087270
-7.027180	2.501530	0.088740
-7.027850	2.501780	0.090210
-7.029410	2.502350	0.091680
-7.030580	2.502780	0.093150
-7.032100	2.503340	0.094630
-7.034100	2.504060	0.096110
-7.036190	2.504820	0.097600
-7.038250	2.505560	0.099080
-7.040150	2.506250	0.100570
-7.043340	2.507400	0.102070
-7.045930	2.508330	0.103570
-7.077520	2.519720	-0.035040
-7.083730	2.521950	-0.033600
-7.084860	2.522370	-0.032140
-7.086410	2.522940	-0.030680
-7.085990	2.522810	-0.029210
-7.086920	2.523150	-0.027750
-7.087190	2.523260	-0.026290
-7.087100	2.523250	-0.024820
-7.086030	2.522880	-0.023350
-7.086360	2.523020	-0.021880
-7.088060	2.523640	-0.020420
-7.087510	2.523460	-0.018950
-7.086940	2.523270	-0.017480
-7.086530	2.523140	-0.016020
-7.086020	2.522980	-0.014550
-7.087420	2.523490	-0.013080
-7.086670	2.523240	-0.011610
-7.086640	2.523250	-0.010150
-7.087160	2.523450	-0.008680
-7.086080	2.523080	-0.007210
-7.086020	2.523080	-0.005740
-7.086680	2.523330	-0.004280
-7.086800	2.523380	-0.002810
-7.085760	2.523030	-0.001340
-7.086500	2.523300	0.000130
-7.086340	2.523260	0.001590
-7.084360	2.522570	0.003060
-7.083420	2.522250	0.004530
-7.072400	2.518330	0.005980
-7.055430	2.512300	0.007430
-7.047710	2.509570	0.008880
-7.044020	2.508270	0.010330
-7.041480	2.507380	0.011790
-7.038710	2.506400	0.013240
-7.036380	2.505590	0.014690
-7.034320	2.504870	0.016140
-7.032580	2.504270	0.017600
-7.030880	2.503670	0.019050
-7.029740	2.503290	0.020500
-7.027840	2.502620	0.021950
-7.026950	2.502320	0.023400
-7.026010	2.502000	0.024850
-7.024800	2.501580	0.026300
-7.022890	2.500930	0.029210
-7.022050	2.500650	0.030660
-7.021320	2.500400	0.032110
-7.020470	2.500110	0.033560
-7.019790	2.499880	0.035010
-7.019440	2.499780	0.036460
-7.018650	2.499510	0.037910
-7.018120	2.499330	0.039370
-7.017720	2.499200	0.040810
-7.017320	2.499080	0.042260
-7.016770	2.498900	0.043710
-7.016750	2.498900	0.045160
-7.016420	2.498800	0.046610
-7.016150	2.498720	0.048060
-7.015740	2.498580	0.049510
-7.015730	2.498600	0.050960
-7.015430	2.498500	0.052410
-7.015560	2.498570	0.053860
-7.015360	2.498510	0.055310
-7.015420	2.498540	0.056760
-7.015420	2.498560	0.058210
-7.015500	2.498600	0.059660
-7.015740	2.498700	0.061120
-7.015750	2.498720	0.062570
-7.015920	2.498790	0.064020
-7.016020	2.498840	0.065480
-7.016300	2.498960	0.066930
-7.016820	2.499160	0.068390
-7.017220	2.499310	0.069850
-7.017540	2.499440	0.071300
-7.018040	2.499640	0.072760
-7.018560	2.499830	0.074220
-7.019020	2.500010	0.075680
-7.019660	2.500250	0.077140
-7.020340	2.500510	0.078600
-7.020870	2.500710	0.080060
-7.021630	2.501000	0.081520
-7.022720	2.501400	0.082990
-7.023370	2.501650	0.084450
-7.024470	2.502050	0.085920
-7.025310	2.502370	0.087390
-7.026680	2.502870	0.088860
-7.027730	2.503260	0.090330
-7.029010	2.503730	0.091800
-7.031040	2.504460	0.093280
-7.032250	2.504910	0.094760
-7.033490	2.505360	0.096230
-7.035960	2.506260	0.097720
-7.038390	2.507140	0.099210
-7.040920	2.508050	0.100700
-7.042710	2.508710	0.102190
-7.045090	2.509570	0.103680
-7.077580	2.521410	-0.034770
-7.083610	2.523570	-0.033330
-7.084770	2.524000	-0.031870
-7.084550	2.523930	-0.030400
-7.084580	2.523960	-0.028940
-7.085390	2.524260	-0.027470
-7.086240	2.524570	-0.026010
-7.086030	2.524510	-0.024540
-7.086270	2.524610	-0.023070
-7.085570	2.524380	-0.021600
-7.085820	2.524480	-0.020140
-7.085830	2.524500	-0.018670
-7.085470	2.524380	-0.017200
-7.085010	2.524230	-0.015730
-7.085800	2.524530	-0.014270
-7.085350	2.524380	-0.012800
-7.085550	2.524460	-0.011330
-7.085220	2.524360	-0.009870
-7.085860	2.524600	-0.008400
-7.085420	2.524460	-0.006930
-7.084510	2.524150	-0.005470
-7.085190	2.524400	-0.004000
-7.084840	2.524290	-0.002530
-7.083990	2.524000	-0.001060
-7.085000	2.524380	0.000400
-7.085720	2.524640	0.001870
-7.085160	2.524460	0.003330
-7.081350	2.523110	0.004800
-7.066390	2.517800	0.006250
-7.052230	2.512770	0.007690
-7.046880	2.510880	0.009150
-7.043530	2.509700	0.010600
-7.040440	2.508610	0.012050
-7.037820	2.507690	0.013500
-7.035500	2.506870	0.014950
-7.033680	2.506240	0.016400
-7.032110	2.505700	0.017860
-7.030570	2.505160	0.019310
-7.028710	2.504510	0.020760
-7.027710	2.504170	0.022210
-7.026410	2.503720	0.023660
-7.025360	2.503360	0.025110
-7.024330	2.503000	0.026560
-7.023070	2.502570	0.028010
-7.022020	2.502210	0.029460
-7.021410	2.502000	0.030910
-7.020850	2.501820	0.032370
-7.020020	2.501540	0.033820
-7.019240	2.501270	0.035260
-7.018720	2.501100	0.036710
-7.018210	2.500930	0.038170
-7.017640	2.500740	0.039610
-7.017370	2.500650	0.041070
-7.016750	2.500450	0.042510
-7.016380	2.500330	0.043970
-7.016070	2.500230	0.045420
-7.015870	2.500170	0.046870
-7.015650	2.500110	0.048320
-7.015340	2.500010	0.049770
-7.015280	2.500000	0.051230
-7.015080	2.499940	0.052680
-7.014980	2.499920	0.054130
-7.015090	2.499970	0.055590
-7.015090	2.499990	0.057040
-7.014940	2.499950	0.058490
-7.015160	2.500040	0.059950
-7.015100	2.500030	0.061400
-7.015490	2.500180	0.062860
-7.015540	2.500210	0.064310
-7.015840	2.500340	0.065770
-7.016120	2.500450	0.067220
-7.016530	2.500610	0.068680
-7.016660	2.500670	0.070130
-7.017280	2.500900	0.071590
-7.017680	2.501060	0.073050
-7.018050	2.501200	0.074510
-7.018890	2.501510	0.075970
-7.019520	2.501750	0.077430
-7.020040	2.501950	0.078890
-7.020880	2.502260	0.080350
-7.021520	2.502500	0.081810
-7.022360	2.502820	0.083270
-7.024350	2.503550	0.086200
-7.025620	2.504020	0.087670
-7.026570	2.504370	0.089140
-7.028010	2.504890	0.090610
-7.029440	2.505420	0.092080
-7.030940	2.505970	0.093560
-7.032400	2.506500	0.095030
-7.033970	2.507080	0.096510
-7.036300	2.507920	0.098000
-7.038610	2.508760	0.099490
-7.040760	2.509540	0.100980
-7.043380	2.510490	0.102480
-7.045520	2.511270	0.103970
-7.076490	2.522490	-0.034720
-7.082010	2.524470	-0.033290
-7.082810	2.524770	-0.031820
-7.083160	2.524910	-0.030360
-7.083800	2.525150	-0.028900
-7.084180	2.525300	-0.027430
-7.085000	2.525610	-0.025970
-7.084260	2.525360	-0.024500
-7.083360	2.525050	-0.023030
-7.084020	2.525300	-0.021570
-7.084750	2.525580	-0.020100
-7.084130	2.525370	-0.018630
-7.085050	2.525710	-0.017170
-7.083600	2.525210	-0.015700
-7.085180	2.525790	-0.014240
-7.083690	2.525270	-0.012770
-7.083430	2.525200	-0.011300
-7.084360	2.525540	-0.009840
-7.083590	2.525280	-0.008370
-7.084200	2.525510	-0.006900
-7.084420	2.525600	-0.005440
-7.083720	2.525370	-0.003970
-7.083420	2.525280	-0.002500
-7.083910	2.525460	-0.001040
-7.084810	2.525800	0.000430
-7.083220	2.525250	0.001900
-7.081670	2.524710	0.003360
-7.081780	2.524760	0.004830
-7.068440	2.520030	0.006280
-7.053070	2.514560	0.007730
-7.046020	2.512060	0.009180
-7.042570	2.510850	0.010640
-7.040060	2.509970	0.012090
-7.038160	2.509300	0.013550
-7.035130	2.508240	0.015000
-7.033440	2.507650	0.016450
-7.031200	2.506870	0.017900
-7.029690	2.506340	0.019360
-7.028390	2.505900	0.020810
-7.027220	2.505490	0.022260
-7.025860	2.505020	0.023710
-7.024880	2.504690	0.025160
-7.024180	2.504450	0.026610
-7.023100	2.504080	0.028060
-7.022020	2.503710	0.029510
-7.021090	2.503390	0.030960
-7.020270	2.503120	0.032410
-7.019620	2.502900	0.033860
-7.019140	2.502740	0.035310
-7.018410	2.502490	0.036760
-7.017690	2.502250	0.038210
-7.017280	2.502120	0.039660
-7.016830	2.501980	0.041110
-7.016460	2.501860	0.042560
-7.016090	2.501740	0.044010
-7.015850	2.501670	0.045460
-7.015570	2.501580	0.046910
-7.015120	2.501440	0.048360
-7.014990	2.501410	0.049810
-7.014920	2.501390	0.051260
-7.014750	2.501350	0.052710
-7.014640	2.501320	0.054160
-7.014560	2.501310	0.055620
-7.014540	2.501310	0.057070
-7.014560	2.501340	0.058520
-7.014660	2.501390	0.059980
-7.014820	2.501460	0.061430
-7.015140	2.501590	0.062890
-7.015200	2.501620	0.064340
-7.015380	2.501700	0.065790
-7.015800	2.501870	0.067250
-7.016060	2.501970	0.068710
-7.016350	2.502090	0.070160
-7.016820	2.502270	0.071620
-7.017360	2.502480	0.073080
-7.017830	2.502660	0.074530
-7.018260	2.502830	0.075990
-7.019000	2.503110	0.077450
-7.019620	2.503340	0.078910
-7.020300	2.503600	0.080370
-7.021170	2.503920	0.081840
-7.022020	2.504240	0.083300
-7.022860	2.504550	0.084760
-7.024020	2.504980	0.086230
-7.025010	2.505350	0.087700
-7.026470	2.505880	0.089170
-7.028980	2.506810	0.092110
-7.030820	2.507480	0.093590
-7.031910	2.507880	0.095060
-7.034230	2.508720	0.096550
-7.036350	2.509490	0.098040
-7.038260	2.510190	0.099520
-7.041180	2.511240	0.101020
-7.043870	2.512220	0.102520
-7.045210	2.512710	0.104000
-7.079530	2.525170	-0.034090
-7.081690	2.525950	-0.032640
-7.082030	2.526090	-0.031170
-7.083640	2.526670	-0.029720
-7.083530	2.526650	-0.028250
-7.082860	2.526430	-0.026780
-7.083770	2.526760	-0.025320
-7.082260	2.526240	-0.023850
-7.082610	2.526380	-0.022380
-7.083540	2.526730	-0.020920
-7.082870	2.526500	-0.019450
-7.083450	2.526720	-0.017990
-7.082750	2.526490	-0.016520
-7.083720	2.526850	-0.015050
-7.081870	2.526200	-0.013580
-7.083450	2.526780	-0.012120
-7.083770	2.526910	-0.010650
-7.081980	2.526280	-0.009180
-7.083360	2.526790	-0.007720
-7.083140	2.526730	-0.006250
-7.083270	2.526790	-0.004780
-7.081910	2.526320	-0.003310
-7.083020	2.526730	-0.001850
-7.082180	2.526440	-0.000380
-7.082290	2.526500	0.001090
-7.082120	2.526450	0.002550
-7.081490	2.526240	0.004020
-7.077110	2.524700	0.005480
-7.061730	2.519220	0.006930
-7.050190	2.515120	0.008380
-7.044480	2.513100	0.009830
-7.041390	2.512010	0.011290
-7.038640	2.511040	0.012740
-7.036710	2.510370	0.014200
-7.034500	2.509600	0.015650
-7.032560	2.508920	0.017100
-7.030520	2.508210	0.018550
-7.029300	2.507790	0.020000
-7.027840	2.507280	0.021460
-7.026430	2.506790	0.022910
-7.025260	2.506390	0.024360
-7.024190	2.506020	0.025810
-7.023240	2.505700	0.027260
-7.022480	2.505440	0.028710
-7.021270	2.505020	0.030160
-7.020550	2.504780	0.031610
-7.019720	2.504500	0.033060
-7.019090	2.504290	0.034510
-7.018300	2.504020	0.035960
-7.017820	2.503860	0.037420
-7.017440	2.503750	0.038870
-7.016810	2.503530	0.040320
-7.016380	2.503400	0.041770
-7.015950	2.503260	0.043220
-7.015500	2.503110	0.044670
-7.015140	2.503000	0.046120
-7.015250	2.503050	0.047570
-7.014770	2.502890	0.049020
-7.014560	2.502830	0.050470
-7.014500	2.502830	0.051920
-7.014550	2.502850	0.053370
-7.014240	2.502760	0.054820
-7.014370	2.502820	0.056280
-7.014350	2.502830	0.057730
-7.014230	2.502800	0.059180
-7.014430	2.502880	0.060630
-7.014700	2.502990	0.062090
-7.014790	2.503040	0.063540
-7.014970	2.503120	0.065000
-7.015220	2.503220	0.066450
-7.015550	2.503350	0.067910
-7.015960	2.503520	0.069370
-7.016380	2.503680	0.070830
-7.016780	2.503840	0.072290
-7.017140	2.503980	0.073750
-7.017850	2.504250	0.075210
-7.018530	2.504500	0.076670
-7.019120	2.504730	0.078130
-7.019730	2.504960	0.079590
-7.020340	2.505190	0.081050
-7.021390	2.505580	0.082520
-7.022170	2.505870	0.083980
-7.023050	2.506200	0.085450
-7.024050	2.506570	0.086910
-7.025360	2.507060	0.088380
-7.026430	2.507450	0.089850
-7.027740	2.507930	0.091320
-7.029320	2.508510	0.092800
-7.031480	2.509290	0.094290
-7.032950	2.509830	0.095760
-7.034930	2.510550	0.097250
-7.036830	2.511250	0.098730
-7.040050	2.512410	0.100230
-7.043090	2.513510	0.101730
-7.045190	2.514270	0.103220
-7.070890	2.523660	-0.035280
-7.078210	2.526290	-0.033850
-7.080040	2.526950	-0.032390
-7.081330	2.527430	-0.030930
-7.081950	2.527660	-0.029460
-7.081220	2.527430	-0.026530
-7.081220	2.527450	-0.025060
-7.081460	2.527550	-0.023600
-7.082830	2.528050	-0.022130
-7.082090	2.527800	-0.020670
-7.082060	2.527810	-0.019200
-7.082300	2.527910	-0.017730
-7.082170	2.527870	-0.016270
-7.082800	2.528110	-0.014800
-7.082020	2.527850	-0.013330
-7.082410	2.528000	-0.011870
-7.081680	2.527750	-0.010400
-7.081900	2.527850	-0.008930
-7.082810	2.528190	-0.007470
-7.081270	2.527650	-0.006000
-7.081160	2.527630	-0.004530
-7.082450	2.528100	-0.003060
-7.081660	2.527830	-0.001590
-7.081220	2.527690	-0.000120
-7.081430	2.527780	0.001340
-7.080580	2.527490	0.002810
-7.079980	2.527290	0.004280
-7.075990	2.525880	0.005740
-7.060490	2.520370	0.007190
-7.048710	2.516180	0.008640
-7.044090	2.514540	0.010090
-7.040860	2.513400	0.011540
-7.038360	2.512530	0.012990
-7.035690	2.511590	0.014440
-7.033790	2.510930	0.015900
-7.031890	2.510260	0.017350
-7.030610	2.509820	0.018800
-7.028630	2.509130	0.020250
-7.027360	2.508690	0.021700
-7.026020	2.508220	0.023150
-7.024880	2.507830	0.024600
-7.023880	2.507490	0.026050
-7.022790	2.507110	0.027500
-7.021860	2.506800	0.028950
-7.021080	2.506530	0.030400
-7.020140	2.506210	0.031850
-7.019190	2.505890	0.033300
-7.018600	2.505690	0.034750
-7.018240	2.505580	0.036200
-7.017530	2.505340	0.037650
-7.017040	2.505180	0.039100
-7.016620	2.505040	0.040560
-7.016010	2.504840	0.042010
-7.015790	2.504770	0.043460
-7.015210	2.504580	0.044910
-7.014960	2.504510	0.046360
-7.014780	2.504460	0.047820
-7.014400	2.504330	0.049270
-7.014400	2.504350	0.050720
-7.014110	2.504260	0.052180
-7.014160	2.504290	0.053630
-7.013960	2.504240	0.055080
-7.014050	2.504280	0.056530
-7.014080	2.504310	0.057980
-7.014200	2.504360	0.059440
-7.014230	2.504390	0.060890
-7.014390	2.504460	0.062340
-7.014610	2.504550	0.063790
-7.014850	2.504650	0.065250
-7.015290	2.504820	0.066700
-7.015470	2.504900	0.068160
-7.015670	2.504990	0.069610
-7.016110	2.505160	0.071070
-7.016760	2.505410	0.072530
-7.016960	2.505490	0.073990
-7.017550	2.505720	0.075450
-7.018170	2.505950	0.076910
-7.019060	2.506280	0.078380
-7.019680	2.506520	0.079840
-7.020220	2.506720	0.081300
-7.021080	2.507050	0.082770
-7.022300	2.507490	0.084240
-7.023140	2.507810	0.085700
-7.024010	2.508130	0.087170
-7.025400	2.508640	0.088640
-7.026380	2.509010	0.090110
-7.027670	2.509480	0.091580
-7.029270	2.510070	0.093050
-7.031140	2.510750	0.094540
-7.032680	2.511310	0.096010
-7.034680	2.512040	0.097500
-7.036790	2.512810	0.098980
-7.040070	2.513990	0.100490
-7.041890	2.514660	0.101970
-7.045130	2.515830	0.103480
-7.070710	2.525220	-0.035190
-7.077270	2.527570	-0.033760
-7.080070	2.528590	-0.032300
-7.079270	2.528320	-0.030830
-7.080370	2.528720	-0.029370
-7.080290	2.528710	-0.027900
-7.080630	2.528840	-0.026440
-7.080420	2.528780	-0.024970
-7.080540	2.528840	-0.023500
-7.080060	2.528680	-0.022040
-7.080270	2.528770	-0.020570
-7.081880	2.529360	-0.019110
-7.080260	2.528790	-0.017640
-7.080300	2.528820	-0.016170
-7.080000	2.528730	-0.014700
-7.080550	2.528940	-0.013240
-7.080900	2.529080	-0.011770
-7.080330	2.528890	-0.010310
-7.080380	2.528930	-0.007380
-7.080710	2.529070	-0.005910
-7.080800	2.529110	-0.004440
-7.080730	2.529100	-0.002980
-7.080590	2.529060	-0.001510
-7.080260	2.528960	-0.000040
-7.080230	2.528960	0.001420
-7.080020	2.528900	0.002890
-7.079870	2.528860	0.004360
-7.074790	2.527060	0.005820
-7.061840	2.522450	0.007270
-7.049780	2.518160	0.008720
-7.044100	2.516150	0.010170
-7.040340	2.514820	0.011620
-7.037590	2.513850	0.013070
-7.035660	2.513170	0.014530
-7.033620	2.512460	0.015980
-7.032020	2.511900	0.017430
-7.030520	2.511380	0.018890
-7.028190	2.510560	0.020340
-7.027110	2.510190	0.021790
-7.025900	2.509770	0.023240
-7.024620	2.509330	0.024690
-7.023440	2.508920	0.026140
-7.022320	2.508540	0.027590
-7.021570	2.508280	0.029040
-7.020820	2.508030	0.030500
-7.019920	2.507720	0.031950
-7.019170	2.507470	0.033400
-7.018450	2.507220	0.034850
-7.017870	2.507030	0.036300
-7.016970	2.506720	0.037750
-7.016460	2.506550	0.039200
-7.016080	2.506430	0.040660
-7.015650	2.506290	0.042110
-7.015400	2.506220	0.043560
-7.014890	2.506050	0.045010
-7.014640	2.505970	0.046460
-7.014440	2.505910	0.047910
-7.014160	2.505830	0.049360
-7.013950	2.505770	0.050810
-7.014030	2.505810	0.052270
-7.013810	2.505740	0.053720
-7.014000	2.505830	0.055170
-7.013830	2.505780	0.056620
-7.013790	2.505780	0.058070
-7.013760	2.505780	0.059530
-7.014110	2.505920	0.060980
-7.014320	2.506010	0.062440
-7.014370	2.506040	0.063890
-7.014630	2.506150	0.065350
-7.014670	2.506180	0.066800
-7.015040	2.506320	0.068260
-7.015380	2.506460	0.069710
-7.015890	2.506660	0.071170
-7.016360	2.506840	0.072630
-7.016910	2.507050	0.074090
-7.017330	2.507210	0.075550
-7.018130	2.507510	0.077010
-7.018690	2.507730	0.078470
-7.019300	2.507960	0.079930
-7.020310	2.508330	0.081390
-7.020990	2.508590	0.082860
-7.022250	2.509060	0.084330
-7.022660	2.509220	0.085790
-7.024000	2.509710	0.087260
-7.025440	2.510240	0.088730
-7.026560	2.510650	0.090200
-7.028220	2.511260	0.091680
-7.029700	2.511800	0.093150
-7.031560	2.512480	0.094630
-7.032800	2.512940	0.096110
-7.035290	2.513840	0.097600
-7.037330	2.514590	0.099080
-7.040700	2.515800	0.100590
-7.042940	2.516620	0.102080
-7.073510	2.527820	-0.034510
-7.077810	2.529370	-0.033060
-7.078500	2.529630	-0.031600
-7.078680	2.529710	-0.030130
-7.079630	2.530060	-0.028670
-7.079480	2.530020	-0.027200
-7.079740	2.530130	-0.025740
-7.079780	2.530160	-0.024270
-7.079850	2.530200	-0.022810
-7.078930	2.529880	-0.021340
-7.079010	2.529930	-0.019880
-7.079040	2.529950	-0.018410
-7.079060	2.529970	-0.016950
-7.078060	2.529630	-0.015480
-7.078840	2.529920	-0.014020
-7.079030	2.530010	-0.012550
-7.080150	2.530420	-0.011090
-7.080940	2.530720	-0.009620
-7.079340	2.530160	-0.008150
-7.079630	2.530280	-0.006690
-7.079410	2.530210	-0.005220
-7.080100	2.530480	-0.003750
-7.078440	2.529900	-0.002280
-7.079410	2.530260	-0.000810
-7.079950	2.530470	0.000660
-7.078350	2.529910	0.002120
-7.078160	2.529850	0.003590
-7.077830	2.529750	0.005060
-7.072180	2.527750	0.006520
-7.057800	2.522620	0.007970
-7.047460	2.518940	0.009410
-7.042460	2.517170	0.010870
-7.039700	2.516200	0.012320
-7.037260	2.515340	0.013770
-7.035130	2.514600	0.015220
-7.032920	2.513820	0.016680
-7.030900	2.513110	0.018130
-7.029220	2.512520	0.019580
-7.027920	2.512070	0.021030
-7.026210	2.511470	0.022480
-7.024900	2.511010	0.023930
-7.024110	2.510740	0.025380
-7.022910	2.510320	0.026830
-7.021810	2.509940	0.028280
-7.021060	2.509690	0.029730
-7.019940	2.509300	0.031180
-7.019260	2.509080	0.032630
-7.018500	2.508820	0.034080
-7.018190	2.508720	0.035530
-7.017360	2.508440	0.036980
-7.016860	2.508270	0.038430
-7.016100	2.508020	0.039880
-7.015870	2.507950	0.041340
-7.015290	2.507760	0.042790
-7.014900	2.507630	0.044240
-7.014520	2.507510	0.045690
-7.014220	2.507420	0.047140
-7.014050	2.507370	0.048590
-7.013820	2.507300	0.050050
-7.013830	2.507320	0.051500
-7.013690	2.507280	0.052950
-7.013600	2.507270	0.054400
-7.013550	2.507260	0.055860
-7.013530	2.507270	0.057310
-7.013810	2.507390	0.058760
-7.013750	2.507380	0.060210
-7.013800	2.507410	0.061670
-7.014230	2.507580	0.063120
-7.014280	2.507610	0.064570
-7.014530	2.507720	0.066030
-7.014740	2.507800	0.067480
-7.015050	2.507930	0.068940
-7.015290	2.508030	0.070390
-7.016040	2.508310	0.071860
-7.016620	2.508530	0.073320
-7.017030	2.508690	0.074780
-7.017480	2.508870	0.076230
-7.018280	2.509170	0.077700
-7.019030	2.509450	0.079160
-7.019840	2.509760	0.080630
-7.020550	2.510020	0.082090
-7.021450	2.510360	0.083560
-7.022480	2.510740	0.085020
-7.023270	2.511040	0.086490
-7.024750	2.511580	0.087960
-7.026050	2.512060	0.089430
-7.027550	2.512610	0.090910
-7.028820	2.513080	0.092380
-7.030490	2.513690	0.093860
-7.032810	2.514530	0.095350
-7.034180	2.515040	0.096820
-7.036330	2.515820	0.098310
-7.039580	2.517000	0.099820
-7.041910	2.517840	0.101310
-7.045800	2.519250	0.102820
-7.071100	2.528540	-0.034700
-7.076170	2.530370	-0.033260
-7.078230	2.531120	-0.031810
-7.077260	2.530780	-0.030340
-7.078180	2.531130	-0.028870
-7.078630	2.531310	-0.027410
-7.078310	2.531210	-0.025940
-7.078710	2.531360	-0.024480
-7.078620	2.531340	-0.023010
-7.078220	2.531220	-0.021550
-7.078330	2.531270	-0.020080
-7.077550	2.531010	-0.018610
-7.078070	2.531200	-0.017150
-7.077860	2.531140	-0.015680
-7.079330	2.531690	-0.014220
-7.078070	2.531250	-0.012750
-7.077730	2.531140	-0.011290
-7.077210	2.530970	-0.009820
-7.078490	2.531440	-0.008360
-7.078540	2.531480	-0.006890
-7.079210	2.531730	-0.005430
-7.078180	2.531380	-0.003960
-7.078560	2.531530	-0.002490
-7.077250	2.531070	-0.001030
-7.077410	2.531140	0.000440
-7.076920	2.530980	0.001910
-7.077140	2.531070	0.003370
-7.076440	2.530840	0.004840
-7.075980	2.530690	0.006310
-7.062600	2.525920	0.007760
-7.049770	2.521350	0.009200
-7.044160	2.519360	0.010660
-7.040370	2.518020	0.012110
-7.037520	2.517010	0.013560
-7.035130	2.516170	0.015010
-7.032570	2.515270	0.016460
-7.031180	2.514790	0.017920
-7.029090	2.514060	0.019370
-7.027900	2.513640	0.020820
-7.026570	2.513180	0.022270
-7.025140	2.512680	0.023720
-7.023860	2.512240	0.025170
-7.023040	2.511960	0.026620
-7.022010	2.511610	0.028070
-7.020900	2.511220	0.029510
-7.020070	2.510950	0.030970
-7.019240	2.510660	0.032420
-7.018640	2.510460	0.033870
-7.018080	2.510280	0.035320
-7.017220	2.509980	0.036770
-7.016660	2.509790	0.038220
-7.016260	2.509670	0.039670
-7.015760	2.509500	0.041120
-7.015370	2.509380	0.042580
-7.014990	2.509260	0.044030
-7.014550	2.509110	0.045480
-7.014360	2.509060	0.046930
-7.014100	2.508980	0.048380
-7.013930	2.508940	0.049830
-7.013550	2.508810	0.051280
-7.013660	2.508870	0.052730
-7.013400	2.508790	0.054180
-7.013510	2.508840	0.055640
-7.013470	2.508840	0.057090
-7.013550	2.508880	0.058540
-7.013480	2.508870	0.059990
-7.013910	2.509040	0.061450
-7.013760	2.509000	0.062900
-7.013900	2.509070	0.064350
-7.014360	2.509250	0.065810
-7.014560	2.509330	0.067270
-7.014860	2.509450	0.068730
-7.015330	2.509640	0.070180
-7.015760	2.509810	0.071640
-7.016310	2.510010	0.073100
-7.016900	2.510240	0.074560
-7.017520	2.510470	0.076020
-7.018070	2.510690	0.077480
-7.018770	2.510950	0.078940
-7.019530	2.511240	0.080410
-7.020290	2.511520	0.081870
-7.021450	2.511950	0.083340
-7.022480	2.512340	0.084810
-7.023070	2.512560	0.086270
-7.024550	2.513110	0.087740
-7.025980	2.513630	0.089220
-7.027420	2.514160	0.090690
-7.029050	2.514760	0.092170
-7.029910	2.515080	0.093640
-7.034370	2.516700	0.096610
-7.036280	2.517400	0.098090
-7.039310	2.518500	0.099590
-7.042320	2.519590	0.101090
-7.046780	2.521200	0.102610
-7.070160	2.529750	-0.034740
-7.073500	2.530960	-0.033290
-7.075760	2.531780	-0.031840
-7.076830	2.532180	-0.030380
-7.077440	2.532410	-0.028910
-7.077630	2.532490	-0.027450
-7.077020	2.532290	-0.025980
-7.076910	2.532260	-0.024520
-7.077310	2.532420	-0.023050
-7.076080	2.531990	-0.021580
-7.078470	2.532870	-0.020120
-7.076180	2.532060	-0.018650
-7.076830	2.532310	-0.017190
-7.077450	2.532540	-0.015720
-7.077470	2.532570	-0.014260
-7.077160	2.532470	-0.012790
-7.078210	2.532860	-0.011330
-7.077320	2.532550	-0.009860
-7.077300	2.532560	-0.008400
-7.077410	2.532620	-0.006930
-7.077540	2.532680	-0.005470
-7.077210	2.532570	-0.004000
-7.076700	2.532400	-0.002530
-7.077080	2.532560	-0.001070
-7.076510	2.532360	0.000400
-7.077310	2.532670	0.001860
-7.077670	2.532810	0.003330
-7.075110	2.531910	0.004800
-7.074630	2.531750	0.006260
-7.066600	2.528890	0.007720
-7.052080	2.523710	0.009160
-7.044840	2.521140	0.010610
-7.040910	2.519750	0.012070
-7.038110	2.518760	0.013520
-7.035680	2.517900	0.014970
-7.032940	2.516940	0.016420
-7.031620	2.516480	0.017880
-7.029600	2.515770	0.019330
-7.028140	2.515270	0.020780
-7.026880	2.514830	0.022230
-7.025540	2.514360	0.023680
-7.024300	2.513930	0.025130
-7.023120	2.513530	0.026580
-7.021600	2.513000	0.028030
-7.021170	2.512850	0.029480
-7.020190	2.512520	0.030930
-7.019290	2.512210	0.032380
-7.018530	2.511950	0.033820
-7.017670	2.511660	0.035270
-7.017370	2.511570	0.036730
-7.016630	2.511320	0.038180
-7.016080	2.511140	0.039630
-7.015670	2.511000	0.041080
-7.015090	2.510810	0.042530
-7.014700	2.510680	0.043980
-7.014660	2.510680	0.045430
-7.014120	2.510510	0.046880
-7.013880	2.510440	0.048330
-7.013770	2.510410	0.049790
-7.013520	2.510330	0.051240
-7.013410	2.510310	0.052690
-7.013300	2.510280	0.054140
-7.013370	2.510320	0.055600
-7.013290	2.510310	0.057050
-7.013390	2.510360	0.058500
-7.013480	2.510410	0.059950
-7.013610	2.510470	0.061410
-7.013670	2.510500	0.062860
-7.014050	2.510650	0.064320
-7.014200	2.510720	0.065770
-7.014290	2.510770	0.067230
-7.015000	2.511030	0.068690
-7.015390	2.511190	0.070140
-7.015930	2.511400	0.071600
-7.016290	2.511540	0.073060
-7.016790	2.511730	0.074510
-7.017440	2.511980	0.075970
-7.017990	2.512190	0.077430
-7.018770	2.512480	0.078890
-7.019410	2.512730	0.080350
-7.021270	2.513420	0.083280
-7.022130	2.513740	0.084750
-7.023460	2.514230	0.086220
-7.024730	2.514700	0.087690
-7.025880	2.515130	0.089160
-7.027100	2.515580	0.090630
-7.028880	2.516230	0.092110
-7.030590	2.516860	0.093590
-7.032080	2.517400	0.095070
-7.034590	2.518320	0.096560
-7.036760	2.519110	0.098040
-7.039390	2.520060	0.099540
-7.044070	2.521750	0.101070
-7.069640	2.531110	-0.034450
-7.074480	2.532860	-0.033010
-7.074830	2.533000	-0.031540
-7.075420	2.533220	-0.030080
-7.076010	2.533450	-0.028620
-7.075740	2.533360	-0.027150
-7.076350	2.533600	-0.025690
-7.076070	2.533510	-0.024220
-7.076620	2.533720	-0.022760
-7.075450	2.533320	-0.021290
-7.075860	2.533480	-0.019820
-7.075870	2.533500	-0.018360
-7.076210	2.533630	-0.016890
-7.075530	2.533410	-0.015430
-7.075840	2.533530	-0.013960
-7.075960	2.533590	-0.012500
-7.075950	2.533600	-0.011030
-7.076050	2.533650	-0.009570
-7.076040	2.533660	-0.008100
-7.076030	2.533670	-0.006640
-7.075370	2.533450	-0.005170
-7.077040	2.534060	-0.003710
-7.074560	2.533190	-0.002240
-7.076180	2.533780	-0.000770
-7.075480	2.533550	0.000700
-7.075550	2.533590	0.002160
-7.076130	2.533810	0.003630
-7.075470	2.533580	0.005100
-7.073750	2.532990	0.006560
-7.066220	2.530300	0.008020
-7.052950	2.525570	0.009460
-7.044870	2.522690	0.010910
-7.041170	2.521380	0.012360
-7.037250	2.519990	0.013810
-7.035240	2.519290	0.015270
-7.032800	2.518430	0.016720
-7.031280	2.517900	0.018170
-7.029680	2.517340	0.019620
-7.028090	2.516790	0.021070
-7.026340	2.516170	0.022520
-7.025050	2.515720	0.023970
-7.024140	2.515410	0.025420
-7.022770	2.514940	0.026870
-7.022150	2.514730	0.028320
-7.020920	2.514300	0.029770
-7.019910	2.513950	0.031220
-7.019120	2.513690	0.032670
-7.018640	2.513530	0.034120
-7.017730	2.513220	0.035570
-7.017000	2.512970	0.037020
-7.016550	2.512820	0.038470
-7.015810	2.512580	0.039920
-7.015420	2.512450	0.041370
-7.015260	2.512410	0.042820
-7.014880	2.512280	0.044270
-7.014590	2.512200	0.045720
-7.014270	2.512090	0.047170
-7.014050	2.512030	0.048630
-7.013800	2.511950	0.050080
-7.013410	2.511830	0.051530
-7.013300	2.511810	0.052980
-7.013210	2.511790	0.054440
-7.013320	2.511840	0.055890
-7.013240	2.511820	0.057340
-7.013300	2.511860	0.058800
-7.013420	2.511920	0.060250
-7.013380	2.511920	0.061710
-7.013940	2.512130	0.063160
-7.014010	2.512170	0.064620
-7.014280	2.512280	0.066070
-7.014590	2.512410	0.067530
-7.015020	2.512580	0.068990
-7.015450	2.512750	0.070450
-7.015810	2.512890	0.071900
-7.016250	2.513060	0.073360
-7.016760	2.513260	0.074820
-7.017550	2.513550	0.076280
-7.018020	2.513740	0.077740
-7.018780	2.514020	0.079210
-7.019700	2.514370	0.080670
-7.020420	2.514640	0.082130
-7.021390	2.515000	0.083600
-7.022270	2.515330	0.085070
-7.023630	2.515830	0.086540
-7.024630	2.516200	0.088000
-7.026300	2.516820	0.089480
-7.027740	2.517350	0.090960
-7.029370	2.517940	0.092430
-7.030910	2.518510	0.093910
-7.032840	2.519220	0.095390
-7.035250	2.520090	0.096880
-7.038150	2.521150	0.098380
-7.040920	2.522150	0.099880
-7.046230	2.524070	0.101410
-7.069220	2.532540	-0.034310
-7.073450	2.534060	-0.032870
-7.073550	2.534110	-0.031400
-7.074380	2.534420	-0.029940
-7.075490	2.534840	-0.028480
-7.074850	2.534620	-0.027010
-7.075050	2.534710	-0.025540
-7.074480	2.534520	-0.024070
-7.075160	2.534780	-0.022610
-7.074460	2.534540	-0.021140
-7.075420	2.534900	-0.019680
-7.074800	2.534690	-0.018210
-7.073900	2.534380	-0.016740
-7.075550	2.534990	-0.015280
-7.074640	2.534680	-0.013810
-7.074330	2.534580	-0.012350
-7.075350	2.534960	-0.010880
-7.075960	2.535190	-0.009420
-7.075460	2.535020	-0.007950
-7.074980	2.534870	-0.006480
-7.075090	2.534920	-0.005020
-7.075390	2.535040	-0.003550
-7.075450	2.535080	-0.002080
-7.075340	2.535050	-0.000620
-7.073700	2.534480	0.000850
-7.075860	2.535270	0.002320
-7.073470	2.534430	0.003780
-7.074040	2.534650	0.005250
-7.074040	2.534660	0.006710
-7.069070	2.532890	0.008170
-7.055250	2.527960	0.009620
-7.045680	2.524540	0.011070
-7.041240	2.522970	0.012520
-7.038510	2.522000	0.013970
-7.035350	2.520880	0.015430
-7.033490	2.520230	0.016880
-7.031530	2.519550	0.018330
-7.029750	2.518920	0.019780
-7.027570	2.518160	0.021230
-7.026670	2.517850	0.022690
-7.025350	2.517390	0.024140
-7.024130	2.516970	0.025590
-7.022890	2.516540	0.027040
-7.021650	2.516110	0.028490
-7.020940	2.515860	0.029940
-7.020150	2.515600	0.031390
-7.019200	2.515270	0.032840
-7.018430	2.515010	0.034290
-7.017530	2.514700	0.035740
-7.017030	2.514530	0.037190
-7.016590	2.514390	0.038650
-7.015740	2.514100	0.040100
-7.015580	2.514060	0.041550
-7.015040	2.513880	0.043000
-7.014650	2.513750	0.044450
-7.014500	2.513710	0.045910
-7.014050	2.513560	0.047360
-7.013930	2.513530	0.048810
-7.013760	2.513490	0.050270
-7.013410	2.513380	0.051720
-7.013340	2.513370	0.053170
-7.013220	2.513340	0.054620
-7.013280	2.513370	0.056070
-7.013290	2.513390	0.057530
-7.013310	2.513410	0.058980
-7.013320	2.513430	0.060430
-7.013610	2.513550	0.061890
-7.013830	2.513640	0.063340
-7.014080	2.513750	0.064800
-7.014270	2.513830	0.066250
-7.014740	2.514010	0.067710
-7.014950	2.514100	0.069170
-7.015520	2.514320	0.070630
-7.015900	2.514470	0.072080
-7.016590	2.514730	0.073550
-7.017030	2.514900	0.075010
-7.017460	2.515070	0.076460
-7.018290	2.515380	0.077930
-7.019150	2.515700	0.079390
-7.020030	2.516030	0.080860
-7.020940	2.516370	0.082330
-7.021810	2.516700	0.083790
-7.022710	2.517030	0.085260
-7.024030	2.517520	0.086730
-7.025220	2.517960	0.088200
-7.026660	2.518490	0.089680
-7.027780	2.518900	0.091150
-7.030110	2.519750	0.092630
-7.031770	2.520370	0.094110
-7.033980	2.521170	0.095600
-7.036240	2.521990	0.097090
-7.038850	2.522940	0.098590
-7.042680	2.524330	0.100100
-7.068900	2.533960	-0.033870
-7.072450	2.535250	-0.032430
-7.072090	2.535130	-0.030960
-7.072850	2.535420	-0.029500
-7.073740	2.535750	-0.028040
-7.073930	2.535840	-0.026580
-7.073720	2.535770	-0.025110
-7.074490	2.536060	-0.023650
-7.073810	2.535830	-0.022180
-7.074540	2.536110	-0.020720
-7.073780	2.535850	-0.019250
-7.073130	2.535640	-0.017780
-7.073470	2.535770	-0.016320
-7.073700	2.535870	-0.014850
-7.074150	2.536040	-0.013390
-7.073110	2.535680	-0.011920
-7.073580	2.535870	-0.010450
-7.074070	2.536060	-0.008990
-7.074160	2.536100	-0.007520
-7.073050	2.535720	-0.006050
-7.074090	2.536110	-0.004590
-7.073160	2.535790	-0.003120
-7.074270	2.536200	-0.001660
-7.072790	2.535680	-0.000190
-7.073220	2.535850	0.001280
-7.073510	2.535970	0.002740
-7.073350	2.535930	0.004210
-7.072450	2.535620	0.005670
-7.071990	2.535470	0.007140
-7.068180	2.534120	0.008600
-7.055050	2.529430	0.010040
-7.046140	2.526250	0.011490
-7.041250	2.524510	0.012940
-7.037620	2.523220	0.014390
-7.035870	2.522610	0.015850
-7.033000	2.521600	0.017300
-7.030920	2.520870	0.018750
-7.029730	2.520450	0.020200
-7.028170	2.519910	0.021650
-7.026610	2.519370	0.023100
-7.025040	2.518820	0.024550
-7.023650	2.518330	0.026000
-7.022770	2.518030	0.027450
-7.021980	2.517760	0.028900
-7.020890	2.517390	0.030360
-7.019800	2.517010	0.031810
-7.018820	2.516670	0.033260
-7.018370	2.516530	0.034710
-7.017730	2.516310	0.036160
-7.017010	2.516070	0.037610
-7.016430	2.515870	0.039060
-7.015660	2.515610	0.040520
-7.015420	2.515540	0.041970
-7.015220	2.515480	0.043420
-7.014750	2.515330	0.044870
-7.014460	2.515240	0.046320
-7.014040	2.515100	0.047770
-7.013950	2.515090	0.049220
-7.013740	2.515030	0.050670
-7.013580	2.514980	0.052120
-7.013440	2.514950	0.053570
-7.013460	2.514970	0.055020
-7.013190	2.514880	0.056470
-7.013340	2.514950	0.057920
-7.013600	2.515060	0.059380
-7.013580	2.515070	0.060830
-7.013860	2.515180	0.062290
-7.014040	2.515260	0.063740
-7.014110	2.515300	0.065200
-7.014380	2.515410	0.066650
-7.014730	2.515550	0.068110
-7.015160	2.515720	0.069570
-7.015830	2.515970	0.071030
-7.016070	2.516070	0.072490
-7.016490	2.516240	0.073940
-7.017000	2.516440	0.075400
-7.018040	2.516820	0.076870
-7.018490	2.517000	0.078330
-7.019490	2.517370	0.079800
-7.020360	2.517700	0.081260
-7.021260	2.518040	0.082730
-7.021980	2.518310	0.084190
-7.022830	2.518630	0.085660
-7.024280	2.519160	0.087130
-7.025770	2.519710	0.088600
-7.027330	2.520280	0.090080
-7.029170	2.520960	0.091560
-7.030940	2.521610	0.093040
-7.033080	2.522390	0.094530
-7.035410	2.523240	0.096020
-7.038280	2.524280	0.097510
-7.041180	2.525340	0.099010
-7.047150	2.527490	0.100560
-7.065630	2.534320	-0.034900
-7.069820	2.535840	-0.033460
-7.070260	2.536010	-0.032000
-7.071180	2.536350	-0.030540
-7.072610	2.536880	-0.029080
-7.071240	2.536410	-0.027610
-7.072100	2.536730	-0.026140
-7.072370	2.536840	-0.024680
-7.072230	2.536810	-0.023210
-7.073340	2.537220	-0.021750
-7.072230	2.536830	-0.020280
-7.073090	2.537160	-0.018810
-7.072120	2.536820	-0.017340
-7.072840	2.537090	-0.015880
-7.072290	2.536910	-0.014410
-7.071950	2.536800	-0.012950
-7.071800	2.536760	-0.011480
-7.072280	2.536950	-0.010020
-7.073040	2.537240	-0.008550
-7.073120	2.537280	-0.007090
-7.072870	2.537210	-0.005620
-7.073190	2.537340	-0.004160
-7.073310	2.537390	-0.002690
-7.073170	2.537360	-0.001230
-7.072880	2.537270	0.000240
-7.072240	2.537050	0.001700
-7.072280	2.537080	0.003170
-7.072260	2.537090	0.004640
-7.071890	2.536970	0.006100
-7.072540	2.537220	0.007570
-7.066020	2.534900	0.009030
-7.056490	2.531490	0.010480
-7.046600	2.527960	0.011920
-7.041430	2.526120	0.013370
-7.037680	2.524790	0.014830
-7.035000	2.523840	0.016280
-7.032460	2.522950	0.017730
-7.031250	2.522520	0.019190
-7.029330	2.521850	0.020640
-7.027770	2.521310	0.022090
-7.026420	2.520840	0.023540
-7.024650	2.520210	0.024990
-7.023890	2.519960	0.026450
-7.022720	2.519550	0.027900
-7.021440	2.519110	0.029350
-7.020640	2.518840	0.030800
-7.020040	2.518640	0.032250
-7.018950	2.518260	0.033700
-7.018080	2.517960	0.035150
-7.017630	2.517810	0.036600
-7.017110	2.517640	0.038060
-7.016430	2.517410	0.039510
-7.015910	2.517240	0.040960
-7.015600	2.517140	0.042410
-7.015120	2.516990	0.043860
-7.014540	2.516790	0.045310
-7.014360	2.516740	0.046760
-7.014360	2.516750	0.048210
-7.013800	2.516570	0.049660
-7.013560	2.516500	0.051110
-7.013460	2.516480	0.052570
-7.013550	2.516520	0.054020
-7.013420	2.516500	0.056930
-7.013280	2.516470	0.058380
-7.013530	2.516570	0.059830
-7.013770	2.516670	0.061290
-7.013930	2.516740	0.062740
-7.014130	2.516830	0.064200
-7.014330	2.516920	0.065650
-7.014420	2.516960	0.067110
-7.015040	2.517200	0.068570
-7.015500	2.517380	0.070030
-7.015860	2.517520	0.071490
-7.016450	2.517750	0.072950
-7.016910	2.517930	0.074410
-7.017630	2.518200	0.075870
-7.018450	2.518510	0.077330
-7.018920	2.518690	0.078790
-7.019750	2.519000	0.080260
-7.020750	2.519380	0.081720
-7.021770	2.519760	0.083190
-7.022920	2.520180	0.084660
-7.023880	2.520540	0.086130
-7.025390	2.521100	0.087600
-7.026990	2.521690	0.089080
-7.028200	2.522130	0.090550
-7.030220	2.522880	0.092030
-7.031980	2.523520	0.093510
-7.034250	2.524350	0.095000
-7.036990	2.525350	0.096500
-7.040590	2.526650	0.098010
-7.045030	2.528260	0.099530
-7.065900	2.535990	-0.034430
-7.070290	2.537580	-0.032980
-7.070840	2.537790	-0.031520
-7.071040	2.537880	-0.030060
-7.071500	2.538060	-0.028590
-7.071650	2.538120	-0.027130
-7.071670	2.538150	-0.025660
-7.071400	2.538060	-0.024190
-7.071020	2.537940	-0.022730
-7.072160	2.538370	-0.021270
-7.071520	2.538150	-0.019800
-7.071230	2.538060	-0.018330
-7.070780	2.537910	-0.016870
-7.071720	2.538270	-0.015410
-7.071560	2.538220	-0.013940
-7.072290	2.538500	-0.012480
-7.071730	2.538310	-0.011010
-7.071430	2.538220	-0.009540
-7.071240	2.538170	-0.008080
-7.071920	2.538420	-0.006610
-7.070870	2.538060	-0.005150
-7.071260	2.538210	-0.003680
-7.071650	2.538370	-0.002220
-7.071290	2.538260	-0.000750
-7.070150	2.537860	0.000720
-7.070890	2.538140	0.002180
-7.071180	2.538260	0.003650
-7.071570	2.538410	0.005110
-7.070680	2.538110	0.006580
-7.069890	2.537840	0.008040
-7.066250	2.536550	0.009500
-7.056660	2.533120	0.010950
-7.048040	2.530040	0.012400
-7.041100	2.527570	0.013840
-7.038000	2.526470	0.015290
-7.035010	2.525410	0.016740
-7.033610	2.524920	0.018200
-7.031070	2.524020	0.019650
-7.029560	2.523490	0.021100
-7.027640	2.522810	0.022550
-7.026100	2.522270	0.024000
-7.025030	2.521900	0.025450
-7.023970	2.521530	0.026900
-7.022490	2.521010	0.028350
-7.021470	2.520660	0.029800
-7.020860	2.520450	0.031260
-7.020070	2.520190	0.032710
-7.018900	2.519780	0.034160
-7.018270	2.519570	0.035610
-7.017630	2.519360	0.037060
-7.017040	2.519160	0.038510
-7.016600	2.519020	0.039970
-7.016040	2.518840	0.041420
-7.015510	2.518660	0.042870
-7.015050	2.518510	0.044320
-7.014690	2.518400	0.045770
-7.014590	2.518380	0.047230
-7.014100	2.518210	0.048680
-7.014120	2.518230	0.050130
-7.013920	2.518170	0.051590
-7.013780	2.518130	0.053040
-7.013660	2.518100	0.054490
-7.013670	2.518120	0.055950
-7.013470	2.518060	0.057400
-7.013510	2.518090	0.058850
-7.013670	2.518160	0.060300
-7.013790	2.518220	0.061760
-7.014220	2.518390	0.063210
-7.014400	2.518460	0.064670
-7.014710	2.518590	0.066120
-7.014920	2.518680	0.067580
-7.015270	2.518820	0.069030
-7.015630	2.518960	0.070490
-7.016270	2.519210	0.071950
-7.016880	2.519440	0.073410
-7.017580	2.519710	0.074870
-7.018330	2.519990	0.076340
-7.018840	2.520190	0.077800
-7.019620	2.520480	0.079260
-7.020220	2.520710	0.080720
-7.021190	2.521070	0.082190
-7.022290	2.521480	0.083660
-7.023730	2.522010	0.085130
-7.024670	2.522370	0.086600
-7.026090	2.522890	0.088080
-7.027850	2.523540	0.089550
-7.029970	2.524310	0.091040
-7.030950	2.524680	0.092510
-7.033640	2.525660	0.094000
-7.035970	2.526510	0.095490
-7.038380	2.527390	0.096980
-7.043870	2.529370	0.098520
-7.054080	2.533050	0.100120
-7.063850	2.536800	-0.034490
-7.068300	2.538410	-0.033050
-7.069220	2.538750	-0.031590
-7.069590	2.538900	-0.030120
-7.071330	2.539540	-0.028660
-7.069870	2.539030	-0.027190
-7.069230	2.538820	-0.025730
-7.070820	2.539400	-0.024270
-7.069420	2.538910	-0.022800
-7.070310	2.539250	-0.021330
-7.069710	2.539040	-0.019870
-7.069890	2.539120	-0.018400
-7.070070	2.539200	-0.016940
-7.070890	2.539510	-0.015470
-7.069970	2.539200	-0.014010
-7.070480	2.539390	-0.012540
-7.069760	2.539150	-0.011080
-7.071400	2.539750	-0.009610
-7.071180	2.539690	-0.008150
-7.071370	2.539770	-0.006680
-7.070040	2.539310	-0.005220
-7.070190	2.539380	-0.003750
-7.069750	2.539230	-0.002290
-7.070450	2.539500	-0.000820
-7.069870	2.539300	0.000640
-7.068740	2.538910	0.002110
