-3.473620	5.835170	-1.552900
-3.473950	5.835750	-1.551660
-3.474220	5.836230	-1.550400
-3.474640	5.836950	-1.549200
-3.474820	5.837290	-1.547890
-3.475180	5.837920	-1.546670
-3.475530	5.838520	-1.545430
-3.476000	5.839340	-1.544250
-3.476320	5.839910	-1.543010
-3.476830	5.840790	-1.541850
-3.477240	5.841510	-1.540650
-3.477810	5.842490	-1.539510
-3.478300	5.843350	-1.538340
-3.478810	5.844220	-1.537180
-3.479440	5.845300	-1.536070
-3.480020	5.846300	-1.534940
-3.480800	5.847650	-1.533900
-3.481670	5.849130	-1.532890
-3.482000	5.849720	-1.531650
-3.483020	5.851450	-1.530710
-3.483800	5.852790	-1.529660
-3.484870	5.854600	-1.528740
-3.485760	5.856120	-1.527750
-3.486640	5.857630	-1.526740
-3.487900	5.859780	-1.525910
-3.489200	5.861990	-1.525080
-3.490850	5.864790	-1.524420
-3.492480	5.867540	-1.523730
-3.494820	5.871500	-1.523360
-3.501590	5.882900	-1.524920
-3.507300	5.892510	-1.526010
-3.509610	5.896430	-1.525610
-3.511290	5.899270	-1.524950
-3.512340	5.901060	-1.524000
-3.510810	5.898520	-1.521940
-3.482630	5.851880	-1.612710
-3.482090	5.851010	-1.611070
-3.481090	5.849340	-1.609210
-3.479590	5.846850	-1.607120
-3.478320	5.844740	-1.605140
-3.477820	5.843930	-1.603520
-3.476850	5.842330	-1.601680
-3.476320	5.841450	-1.600040
-3.475580	5.840240	-1.598310
-3.474920	5.839170	-1.596620
-3.474760	5.838920	-1.595160
-3.474170	5.837950	-1.593500
-3.473750	5.837270	-1.591910
-3.473180	5.836340	-1.590260
-3.473000	5.836070	-1.588790
-3.472510	5.835260	-1.587180
-3.472420	5.835140	-1.585750
-3.472070	5.834570	-1.584200
-3.471930	5.834380	-1.582750
-3.471620	5.833880	-1.581220
-3.471480	5.833680	-1.579770
-3.471420	5.833600	-1.578350
-3.471290	5.833400	-1.576900
-3.471280	5.833420	-1.575510
-3.471100	5.833130	-1.574040
-3.471070	5.833110	-1.572640
-3.471130	5.833230	-1.571280
-3.471080	5.833170	-1.569870
-3.471190	5.833390	-1.568540
-3.471110	5.833280	-1.567120
-3.471060	5.833220	-1.565710
-3.471340	5.833720	-1.564450
-3.471280	5.833650	-1.563030
-3.471390	5.833860	-1.561700
-3.471540	5.834140	-1.560380
-3.471810	5.834620	-1.559110
-3.471910	5.834810	-1.557770
-3.472130	5.835200	-1.556480
-3.472190	5.835320	-1.555120
-3.472630	5.836090	-1.553930
-3.472780	5.836370	-1.552610
-3.473110	5.836950	-1.551370
-3.473390	5.837450	-1.550110
-3.473610	5.837850	-1.548820
-3.473970	5.838480	-1.547600
-3.474230	5.838940	-1.546330
-3.474830	5.839980	-1.545210
-3.475130	5.840510	-1.543960
-3.475570	5.841260	-1.542760
-3.476120	5.842220	-1.541620
-3.476480	5.842850	-1.540400
-3.476950	5.843660	-1.539220
-3.477520	5.844640	-1.538080
-3.478030	5.845540	-1.536920
-3.478780	5.846820	-1.535870
-3.479540	5.848120	-1.534820
-3.480000	5.848920	-1.533630
-3.480730	5.850170	-1.532570
-3.481450	5.851410	-1.531500
-3.482250	5.852770	-1.530460
-3.483140	5.854300	-1.529460
-3.484260	5.856200	-1.528570
-3.485210	5.857830	-1.527600
-3.486380	5.859810	-1.526720
-3.487460	5.861660	-1.525810
-3.488880	5.864070	-1.525040
-3.490240	5.866380	-1.524240
-3.492340	5.869940	-1.523770
-3.496610	5.877140	-1.524240
-3.504370	5.890210	-1.526220
-3.507860	5.896100	-1.526340
-3.508830	5.897750	-1.525370
-3.510340	5.900320	-1.524630
-3.511180	5.901750	-1.523590
-3.481800	5.853130	-1.611590
-3.480850	5.851550	-1.609760
-3.479340	5.849030	-1.607660
-3.478010	5.846820	-1.605660
-3.477200	5.845490	-1.603890
-3.476160	5.843780	-1.602020
-3.475390	5.842510	-1.600270
-3.474930	5.841760	-1.598670
-3.474350	5.840820	-1.597010
-3.473800	5.839910	-1.595370
-3.473340	5.839160	-1.593760
-3.472820	5.838320	-1.592140
-3.472470	5.837750	-1.590580
-3.472090	5.837130	-1.589020
-3.471860	5.836780	-1.587530
-3.471510	5.836230	-1.585980
-3.471190	5.835710	-1.584440
-3.471010	5.835430	-1.582970
-3.470870	5.835210	-1.581520
-3.470730	5.835020	-1.580070
-3.470620	5.834840	-1.578630
-3.470440	5.834570	-1.577160
-3.470320	5.834400	-1.575720
-3.470240	5.834290	-1.574290
-3.470230	5.834300	-1.572900
-3.470230	5.834330	-1.571510
-3.470220	5.834340	-1.570120
-3.470260	5.834440	-1.568750
-3.470160	5.834290	-1.567320
-3.470220	5.834420	-1.565960
-3.470280	5.834550	-1.564600
-3.470390	5.834760	-1.563270
-3.470570	5.835090	-1.561960
-3.470670	5.835270	-1.560620
-3.470770	5.835460	-1.559270
-3.470930	5.835760	-1.557960
-3.471210	5.836260	-1.556700
-3.471440	5.836670	-1.555420
-3.471480	5.836760	-1.554050
-3.471790	5.837320	-1.552810
-3.472100	5.837860	-1.551560
-3.472330	5.838270	-1.550280
-3.472730	5.838970	-1.549070
-3.473020	5.839490	-1.547810
-3.473310	5.840000	-1.546560
-3.473750	5.840770	-1.545370
-3.474230	5.841590	-1.544190
-3.474640	5.842310	-1.542990
-3.475090	5.843100	-1.541810
-3.475520	5.843840	-1.540610
-3.475940	5.844570	-1.539410
-3.476560	5.845640	-1.538290
-3.477260	5.846840	-1.537220
-3.477760	5.847720	-1.536050
-3.478460	5.848910	-1.534970
-3.479020	5.849880	-1.533830
-3.479800	5.851210	-1.532790
-3.480430	5.852300	-1.531680
-3.481290	5.853770	-1.530670
-3.482300	5.855490	-1.529720
-3.483380	5.857350	-1.528810
-3.484100	5.858570	-1.527740
-3.485330	5.860680	-1.526890
-3.486740	5.863070	-1.526120
-3.488140	5.865450	-1.525340
-3.489790	5.868240	-1.524670
-3.491980	5.871960	-1.524230
-3.497640	5.881490	-1.525310
-3.504470	5.893000	-1.526890
-3.506990	5.897260	-1.526590
-3.507890	5.898810	-1.525590
-3.509040	5.900770	-1.524690
-3.510710	5.903600	-1.524020
-3.508630	5.900130	-1.521720
-3.480760	5.853860	-1.611430
-3.479620	5.851970	-1.609510
-3.477270	5.848060	-1.605640
-3.476360	5.846560	-1.603830
-3.475540	5.845210	-1.602060
-3.474700	5.843810	-1.600280
-3.474020	5.842700	-1.598580
-3.473480	5.841820	-1.596940
-3.472910	5.840890	-1.595280
-3.472440	5.840120	-1.593680
-3.472090	5.839560	-1.592130
-3.471530	5.838650	-1.590480
-3.471150	5.838040	-1.588920
-3.470980	5.837770	-1.587450
-3.470790	5.837490	-1.585970
-3.470320	5.836710	-1.584370
-3.470050	5.836290	-1.582860
-3.469950	5.836140	-1.581420
-3.469750	5.835840	-1.579950
-3.469760	5.835880	-1.578560
-3.469510	5.835480	-1.577060
-3.469450	5.835420	-1.575650
-3.469390	5.835320	-1.574230
-3.469530	5.835590	-1.572910
-3.469400	5.835390	-1.571460
-3.469280	5.835220	-1.570020
-3.469220	5.835140	-1.568610
-3.469280	5.835280	-1.567250
-3.469330	5.835390	-1.565890
-3.469480	5.835670	-1.564570
-3.469550	5.835820	-1.563210
-3.469710	5.836100	-1.561900
-3.469830	5.836330	-1.560560
-3.469960	5.836570	-1.559240
-3.470090	5.836810	-1.557910
-3.470290	5.837180	-1.556610
-3.470490	5.837550	-1.555320
-3.470860	5.838200	-1.554100
-3.471120	5.838670	-1.552830
-3.471390	5.839140	-1.551560
-3.471630	5.839560	-1.550280
-3.471910	5.840070	-1.549020
-3.472190	5.840560	-1.547760
-3.472580	5.841250	-1.546550
-3.473130	5.842200	-1.545410
-3.473550	5.842920	-1.544200
-3.473840	5.843450	-1.542950
-3.474260	5.844160	-1.541750
-3.474960	5.845380	-1.540670
-3.475470	5.846260	-1.539510
-3.475760	5.846770	-1.538250
-3.476330	5.847750	-1.537120
-3.477090	5.849060	-1.536070
-3.477780	5.850240	-1.534980
-3.478590	5.851630	-1.533960
-3.479230	5.852730	-1.532850
-3.479980	5.854030	-1.531790
-3.480840	5.855490	-1.530780
-3.481840	5.857200	-1.529830
-3.482400	5.858180	-1.528700
-3.483870	5.860670	-1.527950
-3.485180	5.862900	-1.527140
-3.486010	5.864330	-1.526110
-3.487850	5.867440	-1.525520
-3.489970	5.871030	-1.525060
-3.493270	5.876620	-1.525110
-3.500500	5.888790	-1.526860
-3.505360	5.896990	-1.527590
-3.506600	5.899100	-1.526730
-3.507060	5.899910	-1.525530
-3.508320	5.902050	-1.524680
-3.509940	5.904800	-1.523990
-3.507020	5.899920	-1.521330
-3.479620	5.854500	-1.610930
-3.478950	5.853380	-1.609220
-3.477390	5.850790	-1.607110
-3.476540	5.849380	-1.605320
-3.475440	5.847570	-1.603420
-3.474530	5.846060	-1.601600
-3.473980	5.845160	-1.599960
-3.473360	5.844150	-1.598280
-3.472510	5.842740	-1.596500
-3.471970	5.841850	-1.594850
-3.471520	5.841120	-1.593260
-3.471250	5.840700	-1.591740
-3.470770	5.839920	-1.590130
-3.470120	5.838840	-1.588440
-3.470010	5.838690	-1.587000
-3.469690	5.838180	-1.585470
-3.469400	5.837710	-1.583940
-3.469300	5.837570	-1.582510
-3.469100	5.837260	-1.581030
-3.468910	5.836970	-1.579550
-3.468750	5.836730	-1.578090
-3.468740	5.836730	-1.576700
-3.468690	5.836680	-1.575290
-3.468590	5.836530	-1.573850
-3.468450	5.836330	-1.572400
-3.468340	5.836170	-1.570960
-3.468340	5.836200	-1.569580
-3.468390	5.836300	-1.568210
-3.468430	5.836400	-1.566840
-3.468660	5.836810	-1.565550
-3.468760	5.837010	-1.564210
-3.468790	5.837070	-1.562830
-3.468940	5.837360	-1.561520
-3.469090	5.837630	-1.560190
-3.469200	5.837860	-1.558860
-3.469300	5.838050	-1.557510
-3.469580	5.838540	-1.556250
-3.469980	5.839230	-1.555040
-3.470000	5.839300	-1.553670
-3.470390	5.839970	-1.552450
-3.470570	5.840300	-1.551140
-3.470900	5.840890	-1.549910
-3.471290	5.841580	-1.548690
-3.471550	5.842030	-1.547420
-3.471910	5.842660	-1.546190
-3.472480	5.843660	-1.545060
-3.472820	5.844250	-1.543820
-3.473130	5.844790	-1.542570
-3.473720	5.845810	-1.541450
-3.474360	5.846920	-1.540350
-3.474660	5.847450	-1.539090
-3.475340	5.848620	-1.538000
-3.475740	5.849310	-1.536790
-3.476570	5.850740	-1.535770
-3.477280	5.851950	-1.534690
-3.477790	5.852840	-1.533530
-3.478430	5.853950	-1.532430
-3.479450	5.855680	-1.531480
-3.480300	5.857150	-1.530470
-3.481450	5.859110	-1.529590
-3.482370	5.860680	-1.528600
-3.483320	5.862300	-1.527630
-3.484940	5.865050	-1.526940
-3.486100	5.867030	-1.526060
-3.487910	5.870100	-1.525460
-3.491060	5.875430	-1.525450
-3.497190	5.885770	-1.526730
-3.503790	5.896910	-1.528220
-3.505690	5.900130	-1.527650
-3.506110	5.900860	-1.526430
-3.506350	5.901290	-1.525140
-3.507640	5.903490	-1.524300
-3.508870	5.905580	-1.523440
-3.477560	5.853620	-1.610150
-3.477720	5.853910	-1.608830
-3.476430	5.851770	-1.606840
-3.475770	5.850700	-1.605150
-3.474460	5.848520	-1.603150
-3.473720	5.847300	-1.601420
-3.472910	5.845960	-1.599650
-3.472430	5.845190	-1.598040
-3.471780	5.844120	-1.596350
-3.471310	5.843360	-1.594740
-3.470540	5.842100	-1.593000
-3.470330	5.841750	-1.591510
-3.469850	5.840970	-1.589890
-3.469610	5.840580	-1.588390
-3.469080	5.839710	-1.586760
-3.468900	5.839430	-1.585280
-3.468830	5.839330	-1.583860
-3.468540	5.838870	-1.582340
-3.468210	5.838340	-1.580800
-3.468120	5.838210	-1.579370
-3.467990	5.838030	-1.577930
-3.467830	5.837780	-1.576460
-3.467690	5.837580	-1.575020
-3.467670	5.837570	-1.573620
-3.467690	5.837630	-1.572240
-3.467640	5.837560	-1.570830
-3.467580	5.837500	-1.569420
-3.467650	5.837640	-1.568060
-3.467750	5.837840	-1.566720
-3.467620	5.837640	-1.565280
-3.467740	5.837870	-1.563940
-3.467970	5.838280	-1.562660
-3.468040	5.838420	-1.561300
-3.468170	5.838660	-1.559970
-3.468460	5.839180	-1.558720
-3.468570	5.839390	-1.557380
-3.468750	5.839710	-1.556070
-3.468910	5.840020	-1.554760
-3.469170	5.840480	-1.553490
-3.469550	5.841140	-1.552270
-3.469840	5.841660	-1.551010
-3.470170	5.842250	-1.549780
-3.470510	5.842840	-1.548540
-3.470970	5.843650	-1.547360
-3.471280	5.844190	-1.546110
-3.471750	5.845010	-1.544930
-3.472040	5.845510	-1.543670
-3.472530	5.846370	-1.542500
-3.473070	5.847310	-1.541360
-3.473670	5.848340	-1.540230
-3.474040	5.848990	-1.539010
-3.474780	5.850260	-1.537950
-3.475150	5.850920	-1.536730
-3.476140	5.852600	-1.535780
-3.476500	5.853230	-1.534550
-3.477300	5.854610	-1.533520
-3.478510	5.856660	-1.532660
-3.479110	5.857700	-1.531540
-3.479990	5.859220	-1.530540
-3.480920	5.860800	-1.529560
-3.482120	5.862860	-1.528700
-3.483380	5.864990	-1.527860
-3.484720	5.867280	-1.527060
-3.486580	5.870440	-1.526480
-3.488470	5.873640	-1.525910
-3.494150	5.883230	-1.527000
-3.500940	5.894680	-1.528570
-3.504030	5.899920	-1.528520
-3.504580	5.900860	-1.527360
-3.505210	5.901950	-1.526240
-3.505730	5.902850	-1.525070
-3.507430	5.905740	-1.524410
-3.507800	5.906390	-1.523170
-3.477140	5.855590	-1.609180
-3.476140	5.853920	-1.607320
-3.475280	5.852490	-1.605530
-3.474020	5.850400	-1.603560
-3.473130	5.848920	-1.601760
-3.472220	5.847420	-1.599940
-3.471550	5.846310	-1.598240
-3.470810	5.845090	-1.596510
-3.470490	5.844570	-1.594970
-3.469860	5.843540	-1.593290
-3.469390	5.842770	-1.591690
-3.468910	5.842000	-1.590080
-3.468660	5.841600	-1.588570
-3.468360	5.841110	-1.587040
-3.467920	5.840390	-1.585450
-3.467920	5.840410	-1.584060
-3.467680	5.840040	-1.582570
-3.467330	5.839480	-1.581020
-3.467210	5.839290	-1.579570
-3.467130	5.839190	-1.578150
-3.467050	5.839080	-1.576730
-3.466820	5.838720	-1.575230
-3.466770	5.838660	-1.573820
-3.466820	5.838770	-1.572450
-3.466700	5.838590	-1.571010
-3.466710	5.838640	-1.569630
-3.466800	5.838820	-1.568280
-3.466680	5.838630	-1.566840
-3.466900	5.839030	-1.565550
-3.466870	5.839020	-1.564150
-3.467030	5.839300	-1.562830
-3.467260	5.839720	-1.561550
-3.467440	5.840040	-1.560240
-3.467480	5.840140	-1.558870
-3.467660	5.840480	-1.557570
-3.467980	5.841040	-1.556330
-3.468100	5.841260	-1.554990
-3.468380	5.841760	-1.553730
-3.468560	5.842090	-1.552430
-3.469110	5.843040	-1.551290
-3.469290	5.843370	-1.549990
-3.469640	5.843990	-1.548760
-3.470020	5.844660	-1.547540
-3.470440	5.845390	-1.546340
-3.470950	5.846280	-1.545180
-3.471160	5.846650	-1.543880
-3.471570	5.847370	-1.542680
-3.472240	5.848520	-1.541590
-3.472630	5.849200	-1.540370
-3.473270	5.850310	-1.539270
-3.473820	5.851260	-1.538120
-3.474660	5.852700	-1.537100
-3.475150	5.853550	-1.535930
-3.475900	5.854840	-1.534870
-3.476500	5.855880	-1.533750
-3.477600	5.857760	-1.532850
-3.478580	5.859440	-1.531890
-3.478900	5.860000	-1.530640
-3.480060	5.861970	-1.529760
-3.481390	5.864240	-1.528960
-3.482710	5.866490	-1.528150
-3.484370	5.869310	-1.527490
-3.485570	5.871360	-1.526630
-3.489250	5.877580	-1.526840
-3.495770	5.888590	-1.528300
-3.501200	5.897760	-1.529280
-3.503310	5.901350	-1.528810
-3.503740	5.902090	-1.527590
-3.504110	5.902740	-1.526360
-3.504560	5.903510	-1.525160
-3.505770	5.905590	-1.524290
-3.506880	5.907490	-1.523370
-3.475940	5.856230	-1.608710
-3.475380	5.855300	-1.607060
-3.474330	5.853560	-1.605180
-3.473350	5.851950	-1.603330
-3.472690	5.850850	-1.601630
-3.471590	5.849030	-1.599730
-3.470900	5.847900	-1.598020
-3.470200	5.846740	-1.596310
-3.469550	5.845680	-1.594620
-3.469170	5.845050	-1.593050
-3.468560	5.844060	-1.591380
-3.468140	5.843370	-1.589790
-3.468060	5.843260	-1.588370
-3.467590	5.842490	-1.586760
-3.467260	5.841970	-1.585220
-3.467160	5.841830	-1.583790
-3.466890	5.841400	-1.582280
-3.466730	5.841150	-1.580810
-3.466470	5.840750	-1.579310
-3.466290	5.840460	-1.577830
-3.466180	5.840300	-1.576390
-3.466080	5.840160	-1.574960
-3.466160	5.840320	-1.573610
-3.465990	5.840070	-1.572150
-3.465940	5.840000	-1.570730
-3.465990	5.840120	-1.569370
-3.465960	5.840090	-1.567970
-3.466100	5.840350	-1.566640
-3.466240	5.840620	-1.565320
-3.466200	5.840570	-1.563910
-3.466340	5.840830	-1.562580
-3.466400	5.840960	-1.561220
-3.466700	5.841500	-1.559970
-3.466910	5.841880	-1.558680
-3.466940	5.841960	-1.557300
-3.467190	5.842390	-1.556020
-3.467400	5.842780	-1.554730
-3.467620	5.843170	-1.553440
-3.468080	5.843970	-1.552260
-3.468470	5.844660	-1.551050
-3.468830	5.845300	-1.549820
-3.469100	5.845770	-1.548560
-3.469430	5.846360	-1.547320
-3.469750	5.846910	-1.546070
-3.470110	5.847550	-1.544840
-3.470630	5.848440	-1.543680
-3.471030	5.849160	-1.542480
-3.471660	5.850240	-1.541370
-3.472170	5.851120	-1.540210
-3.472880	5.852340	-1.539130
-3.473490	5.853400	-1.538020
-3.474120	5.854490	-1.536910
-3.474660	5.855420	-1.535760
-3.475610	5.857060	-1.534790
-3.476140	5.857970	-1.533630
-3.477230	5.859820	-1.532720
-3.478320	5.861700	-1.531820
-3.479160	5.863140	-1.530800
-3.480230	5.864960	-1.529870
-3.481400	5.866950	-1.529000
-3.482780	5.869320	-1.528220
-3.484750	5.872660	-1.527690
-3.487050	5.876560	-1.527300
-3.494180	5.888590	-1.529030
-3.500010	5.898450	-1.530180
-3.502490	5.902650	-1.529870
-3.502900	5.903370	-1.528650
-3.503130	5.903780	-1.527350
-3.502790	5.903230	-1.525800
-3.504010	5.905320	-1.524940
-3.505490	5.907830	-1.524180
-3.505380	5.907680	-1.522740
-3.474640	5.856720	-1.607550
-3.474090	5.855820	-1.605900
-3.473010	5.854020	-1.604010
-3.471840	5.852070	-1.602070
-3.471170	5.850980	-1.600370
-3.470400	5.849700	-1.598620
-3.469560	5.848310	-1.596850
-3.468930	5.847270	-1.595160
-3.468700	5.846920	-1.593670
-3.467930	5.845630	-1.591920
-3.467660	5.845210	-1.590410
-3.467240	5.844520	-1.588830
-3.466920	5.844010	-1.587290
-3.466460	5.843270	-1.585690
-3.466380	5.843150	-1.584260
-3.466190	5.842870	-1.582790
-3.465940	5.842470	-1.581290
-3.465920	5.842450	-1.579880
-3.465620	5.841980	-1.578360
-3.465570	5.841920	-1.576950
-3.465200	5.841320	-1.575390
-3.465300	5.841520	-1.574050
-3.465180	5.841330	-1.572600
-3.465200	5.841390	-1.571220
-3.465100	5.841250	-1.569790
-3.465180	5.841410	-1.568440
-3.465300	5.841640	-1.567100
-3.465410	5.841840	-1.565760
-3.465410	5.841870	-1.564370
-3.465500	5.842050	-1.563030
-3.465670	5.842360	-1.561710
-3.465790	5.842580	-1.560380
-3.465970	5.842920	-1.559070
-3.466200	5.843330	-1.557790
-3.466360	5.843630	-1.556470
-3.466520	5.843920	-1.555150
-3.466770	5.844370	-1.553880
-3.467070	5.844890	-1.552620
-3.467370	5.845430	-1.551370
-3.467670	5.845970	-1.550120
-3.468170	5.846830	-1.548950
-3.468600	5.847590	-1.547760
-3.468850	5.848030	-1.546480
-3.469120	5.848500	-1.545210
-3.469690	5.849500	-1.544080
-3.470320	5.850580	-1.542970
-3.470780	5.851370	-1.541790
-3.471270	5.852230	-1.540620
-3.471750	5.853070	-1.539450
-3.472440	5.854260	-1.538360
-3.473130	5.855440	-1.537280
-3.473790	5.856570	-1.536180
-3.474400	5.857630	-1.535060
-3.475460	5.859450	-1.534140
-3.476240	5.860800	-1.533100
-3.477220	5.862470	-1.532140
-3.478130	5.864020	-1.531150
-3.479660	5.866630	-1.530430
-3.480730	5.868460	-1.529510
-3.482170	5.870910	-1.528750
-3.484320	5.874560	-1.528300
-3.488120	5.880990	-1.528580
-3.495580	5.893590	-1.530450
-3.500140	5.901300	-1.531050
-3.501880	5.904260	-1.530410
-3.501820	5.904190	-1.528990
-3.502340	5.905080	-1.527810
-3.502030	5.904580	-1.526280
-3.502140	5.904790	-1.524930
-3.504220	5.908330	-1.524440
-3.504780	5.909310	-1.523280
-3.472930	5.856520	-1.606630
-3.473080	5.856810	-1.605310
-3.471960	5.854940	-1.603400
-3.471320	5.853900	-1.601710
-3.470210	5.852040	-1.599810
-3.469400	5.850700	-1.598040
-3.469050	5.850150	-1.596490
-3.468250	5.848810	-1.594730
-3.467480	5.847540	-1.592980
-3.467190	5.847080	-1.591460
-3.466780	5.846420	-1.589880
-3.466500	5.845970	-1.588360
-3.466130	5.845360	-1.586800
-3.465820	5.844880	-1.585270
-3.465400	5.844180	-1.583680
-3.465320	5.844080	-1.582250
-3.465010	5.843580	-1.580720
-3.464940	5.843490	-1.579300
-3.464730	5.843160	-1.577810
-3.464680	5.843100	-1.576400
-3.464620	5.843020	-1.574980
-3.464510	5.842860	-1.573540
-3.464450	5.842800	-1.572130
-3.464400	5.842740	-1.570720
-3.464650	5.843190	-1.569440
-3.464440	5.842860	-1.567960
-3.464560	5.843090	-1.566630
-3.464590	5.843150	-1.565250
-3.464720	5.843400	-1.563920
-3.464840	5.843620	-1.562580
-3.465020	5.843960	-1.561280
-3.465210	5.844310	-1.559980
-3.465500	5.844840	-1.557330
-3.465780	5.845350	-1.556070
-3.466020	5.845770	-1.554790
-3.466200	5.846100	-1.553490
-3.466580	5.846770	-1.552270
-3.466750	5.847080	-1.550960
-3.467260	5.847970	-1.549800
-3.467540	5.848460	-1.548540
-3.467950	5.849190	-1.547340
-3.468480	5.850100	-1.546180
-3.468830	5.850710	-1.544950
-3.469370	5.851650	-1.543810
-3.469670	5.852180	-1.542550
-3.470450	5.853520	-1.541510
-3.471040	5.854550	-1.540380
-3.471690	5.855660	-1.539280
-3.472260	5.856660	-1.538150
-3.472970	5.857880	-1.537070
-3.473820	5.859320	-1.536050
-3.474500	5.860500	-1.534960
-3.475320	5.861900	-1.533940
-3.476170	5.863360	-1.532920
-3.477340	5.865370	-1.532050
-3.478480	5.867330	-1.531160
-3.479890	5.869730	-1.530390
-3.481050	5.871710	-1.529510
-3.483560	5.875970	-1.529220
-3.488220	5.883860	-1.529880
-3.494590	5.894630	-1.531270
-3.498920	5.901970	-1.531770
-3.500580	5.904790	-1.531100
-3.500620	5.904890	-1.529720
-3.501320	5.906100	-1.528630
-3.500930	5.905470	-1.527060
-3.501550	5.906530	-1.525940
-3.501870	5.907100	-1.524680
-3.503980	5.910690	-1.524200
-3.502590	5.908370	-1.522200
-3.472270	5.858050	-1.606430
-3.472320	5.858170	-1.605060
-3.471280	5.856430	-1.603180
-3.470650	5.855390	-1.601500
-3.469600	5.853650	-1.599620
-3.468850	5.852410	-1.597880
-3.468340	5.851580	-1.596260
-3.467500	5.850180	-1.594470
-3.467140	5.849610	-1.592920
-3.466600	5.848730	-1.591280
-3.466080	5.847880	-1.589650
-3.465700	5.847270	-1.588090
-3.465430	5.846840	-1.586570
-3.464870	5.845930	-1.584930
-3.464830	5.845890	-1.583520
-3.464630	5.845580	-1.582040
-3.464190	5.844870	-1.580450
-3.464240	5.844980	-1.579080
-3.463890	5.844420	-1.577530
-3.464000	5.844620	-1.576200
-3.463890	5.844460	-1.574760
-3.463800	5.844330	-1.573330
-3.463760	5.844280	-1.571920
-3.463760	5.844300	-1.570530
-3.463740	5.844300	-1.569140
-3.463830	5.844480	-1.567790
-3.463860	5.844550	-1.566420
-3.463810	5.844480	-1.565000
-3.464130	5.845050	-1.563760
-3.464050	5.844940	-1.562330
-3.464270	5.845340	-1.561040
-3.464480	5.845720	-1.559750
-3.464520	5.845820	-1.558380
-3.464740	5.846210	-1.557090
-3.465110	5.846880	-1.555870
-3.465410	5.847410	-1.554620
-3.465670	5.847870	-1.553350
-3.465650	5.847870	-1.551950
-3.466280	5.848970	-1.550850
-3.466350	5.849110	-1.549490
-3.466930	5.850120	-1.548360
-3.467360	5.850880	-1.547170
-3.467880	5.851770	-1.546010
-3.468280	5.852470	-1.544800
-3.468650	5.853120	-1.543580
-3.469390	5.854400	-1.542520
-3.469580	5.854750	-1.541210
-3.470390	5.856140	-1.540190
-3.471150	5.857440	-1.539130
-3.471720	5.858430	-1.538000
-3.472440	5.859670	-1.536930
-3.473170	5.860930	-1.535860
-3.474100	5.862490	-1.534880
-3.474890	5.863850	-1.533840
-3.476250	5.866160	-1.533050
-3.477150	5.867710	-1.532060
-3.478410	5.869870	-1.531220
-3.479630	5.871950	-1.530370
-3.481960	5.875900	-1.530000
-3.485890	5.882560	-1.530330
-3.493310	5.895110	-1.532200
-3.497760	5.902650	-1.532750
-3.499420	5.905480	-1.532080
-3.499580	5.905760	-1.530750
-3.499690	5.905980	-1.529400
-3.499990	5.906500	-1.528130
-3.499950	5.906470	-1.526720
-3.500500	5.907420	-1.525560
-3.501500	5.909140	-1.524600
-3.503220	5.912060	-1.523940
-3.500270	5.907110	-1.521270
-3.471800	5.859940	-1.605110
-3.471000	5.858610	-1.603340
-3.469880	5.856750	-1.601430
-3.469050	5.855380	-1.599660
-3.468440	5.854380	-1.597990
-3.467470	5.852770	-1.596150
-3.466960	5.851930	-1.594520
-3.466230	5.850720	-1.592790
-3.465820	5.850060	-1.591210
-3.465460	5.849470	-1.589660
-3.465070	5.848840	-1.588090
-3.464810	5.848430	-1.586580
-3.464480	5.847890	-1.585040
-3.464180	5.847420	-1.583510
-3.463780	5.846780	-1.581940
-3.463770	5.846780	-1.580550
-3.463520	5.846390	-1.579050
-3.463490	5.846360	-1.577640
-3.463250	5.845980	-1.576150
-3.463290	5.846080	-1.574780
-3.462990	5.845600	-1.573250
-3.463130	5.845860	-1.571920
-3.463050	5.845760	-1.570500
-3.463050	5.845770	-1.569110
-3.463000	5.845720	-1.567700
-3.463170	5.846030	-1.566390
-3.463330	5.846330	-1.565070
-3.463330	5.846360	-1.563680
-3.463460	5.846590	-1.562350
-3.463610	5.846870	-1.561030
-3.463720	5.847090	-1.559690
-3.464110	5.847770	-1.558480
-3.464090	5.847760	-1.557080
-3.464530	5.848530	-1.555900
-3.464720	5.848890	-1.554590
-3.464880	5.849170	-1.553280
-3.465400	5.850080	-1.552120
-3.465490	5.850270	-1.550780
-3.465990	5.851130	-1.549620
-3.466460	5.851940	-1.548440
-3.466850	5.852630	-1.547220
-3.467200	5.853250	-1.545990
-3.467790	5.854270	-1.544870
-3.468380	5.855290	-1.543740
-3.468940	5.856260	-1.542600
-3.469270	5.856840	-1.541360
-3.470030	5.858160	-1.540310
-3.470720	5.859350	-1.539220
-3.471340	5.860420	-1.538110
-3.472100	5.861720	-1.537050
-3.472780	5.862900	-1.535970
-3.473920	5.864850	-1.535080
-3.475160	5.866960	-1.534240
-3.475840	5.868140	-1.533150
-3.477150	5.870380	-1.532340
-3.478830	5.873240	-1.531690
-3.480320	5.875770	-1.530950
-3.484200	5.882350	-1.531270
-3.491550	5.894780	-1.533100
-3.497140	5.904240	-1.534160
-3.498660	5.906840	-1.533430
-3.498880	5.907230	-1.532120
-3.499050	5.907550	-1.530800
-3.499640	5.908570	-1.529660
-3.498550	5.906750	-1.527780
-3.498990	5.907510	-1.526580
-3.499080	5.907690	-1.525220
-3.500490	5.910100	-1.524430
-3.502060	5.912770	-1.523720
-3.469660	5.858850	-1.604350
-3.470370	5.860080	-1.603280
-3.469360	5.858400	-1.601420
-3.468720	5.857350	-1.599730
-3.467950	5.856060	-1.597980
-3.467240	5.854890	-1.596260
-3.466470	5.853620	-1.594510
-3.465690	5.852340	-1.592760
-3.465290	5.851680	-1.591180
-3.464730	5.850760	-1.589540
-3.464490	5.850380	-1.588030
-3.464180	5.849900	-1.586500
-3.463690	5.849090	-1.584890
-3.463370	5.848570	-1.583350
-3.463300	5.848480	-1.581930
-3.463000	5.848010	-1.580400
-3.462900	5.847860	-1.578970
-3.462670	5.847490	-1.577470
-3.462570	5.847360	-1.576040
-3.462530	5.847310	-1.574630
-3.462560	5.847390	-1.573260
-3.462510	5.847340	-1.571850
-3.462440	5.847230	-1.570430
-3.462480	5.847330	-1.569060
-3.462470	5.847350	-1.567670
-3.462440	5.847320	-1.566270
-3.462650	5.847690	-1.564970
-3.462770	5.847920	-1.563630
-3.462950	5.848250	-1.562330
-3.462960	5.848300	-1.560940
-3.463270	5.848850	-1.559690
-3.463490	5.849240	-1.558400
-3.463630	5.849510	-1.557080
-3.463850	5.849900	-1.555790
-3.464020	5.850230	-1.554480
-3.464330	5.850770	-1.553230
-3.464730	5.851480	-1.552020
-3.464940	5.851850	-1.550720
-3.465420	5.852680	-1.549550
-3.465850	5.853430	-1.548360
-3.466340	5.854300	-1.547190
-3.466710	5.854940	-1.545960
-3.467330	5.856020	-1.544850
-3.467670	5.856610	-1.543610
-3.468290	5.857690	-1.542500
-3.468950	5.858830	-1.541410
-3.469620	5.859980	-1.540320
-3.470150	5.860900	-1.539160
-3.471070	5.862480	-1.538180
-3.471840	5.863820	-1.537140
-3.472800	5.865460	-1.536170
-3.473730	5.867060	-1.535200
-3.474990	5.869220	-1.534370
-3.476150	5.871200	-1.533490
-3.477280	5.873120	-1.532590
-3.479560	5.877010	-1.532210
-3.482980	5.882810	-1.532320
-3.489820	5.894380	-1.533940
-3.495130	5.903380	-1.534870
-3.497790	5.907900	-1.534640
-3.497870	5.908050	-1.533280
-3.498590	5.909300	-1.532190
-3.498530	5.909220	-1.530770
-3.497680	5.907820	-1.529000
-3.498130	5.908600	-1.527790
-3.498250	5.908820	-1.526450
-3.498870	5.909900	-1.525320
-3.499960	5.911770	-1.524400
-3.501100	5.913720	-1.523490
-3.469600	5.861360	-1.603400
-3.469420	5.861090	-1.601930
-3.468330	5.859280	-1.600030
-3.467450	5.857810	-1.598230
-3.466870	5.856860	-1.596570
-3.465770	5.855030	-1.594670
-3.465370	5.854380	-1.593100
-3.464910	5.853640	-1.591490
-3.464410	5.852800	-1.589870
-3.463750	5.851720	-1.588180
-3.463450	5.851240	-1.586650
-3.463090	5.850650	-1.585090
-3.462880	5.850310	-1.583600
-3.462540	5.849780	-1.582060
-3.462490	5.849720	-1.580640
-3.462190	5.849220	-1.579110
-3.462230	5.849310	-1.577740
-3.462180	5.849250	-1.576330
-3.462030	5.849030	-1.574870
-3.461720	5.848530	-1.573340
-3.461870	5.848800	-1.572010
-3.461610	5.848390	-1.570510
-3.461850	5.848820	-1.569230
-3.461880	5.848890	-1.567850
-3.461850	5.848860	-1.566440
-3.461880	5.848940	-1.565070
-3.462210	5.849520	-1.563830
-3.462080	5.849330	-1.562380
-3.462470	5.850030	-1.561170
-3.462590	5.850250	-1.559840
-3.462670	5.850420	-1.558480
-3.462920	5.850860	-1.557210
-3.463340	5.851590	-1.556010
-3.463650	5.852140	-1.554760
-3.464040	5.852830	-1.553550
-3.464080	5.852920	-1.552170
-3.464580	5.853790	-1.551010
-3.464950	5.854440	-1.549790
-3.465390	5.855220	-1.548600
-3.465880	5.856070	-1.547430
-3.466410	5.856990	-1.546270
-3.466760	5.857600	-1.545040
-3.467240	5.858440	-1.543860
-3.467910	5.859610	-1.542780
-3.468430	5.860510	-1.541620
-3.469280	5.861970	-1.540600
-3.470000	5.863220	-1.539530
-3.470710	5.864440	-1.538460
-3.471590	5.865970	-1.537460
-3.472430	5.867410	-1.536440
-3.473330	5.868960	-1.535450
-3.474810	5.871490	-1.534710
-3.476210	5.873880	-1.533940
-3.477600	5.876260	-1.533170
-3.481030	5.882080	-1.533280
-3.487920	5.893750	-1.534920
-3.493420	5.903060	-1.535940
-3.496230	5.907840	-1.535780
-3.497120	5.909380	-1.534780
-3.497310	5.909690	-1.533450
-3.497580	5.910170	-1.532170
-3.497620	5.910260	-1.530790
-3.497750	5.910510	-1.529450
-3.497190	5.909580	-1.527800
-3.497300	5.909800	-1.526450
-3.497690	5.910480	-1.525220
-3.499790	5.914050	-1.524740
-3.499760	5.914030	-1.523330
-3.469890	5.864450	-1.603680
-3.469230	5.863370	-1.601980
-3.468170	5.861600	-1.600100
-3.466970	5.859600	-1.598150
-3.466440	5.858740	-1.596510
-3.465650	5.857420	-1.594760
-3.465140	5.856590	-1.593130
-3.464350	5.855280	-1.591380
-3.463830	5.854430	-1.589750
-3.463520	5.853920	-1.588210
-3.463010	5.853090	-1.586590
-3.462730	5.852640	-1.585070
-3.462480	5.852240	-1.583560
-3.462210	5.851820	-1.582050
-3.461810	5.851160	-1.580470
-3.461710	5.851020	-1.579040
-3.461640	5.850930	-1.577620
-3.461440	5.850620	-1.576130
-3.461370	5.850530	-1.574710
-3.461230	5.850320	-1.573260
-3.461280	5.850420	-1.571890
-3.461180	5.850280	-1.570460
-3.461090	5.850160	-1.569030
-3.461360	5.850630	-1.567760
-3.461410	5.850750	-1.566400
-3.461390	5.850740	-1.565000
-3.461770	5.851440	-1.562400
-3.462030	5.851900	-1.561130
-3.461950	5.851800	-1.559710
-3.462220	5.852280	-1.558440
-3.462590	5.852930	-1.557220
-3.462700	5.853140	-1.555880
-3.463040	5.853740	-1.554650
-3.463310	5.854220	-1.553380
-3.463830	5.855130	-1.552220
-3.464030	5.855490	-1.550920
-3.464440	5.856210	-1.549720
-3.464980	5.857150	-1.548570
-3.465360	5.857820	-1.547350
-3.465810	5.858600	-1.546160
-3.466370	5.859570	-1.545020
-3.467030	5.860720	-1.543930
-3.467610	5.861720	-1.542790
-3.468340	5.862980	-1.541730
-3.468930	5.864010	-1.540610
-3.469980	5.865810	-1.539680
-3.470600	5.866890	-1.538570
-3.471560	5.868520	-1.537600
-3.472920	5.870850	-1.536810
-3.473460	5.871800	-1.535670
-3.475070	5.874550	-1.534990
-3.476710	5.877340	-1.534320
-3.480420	5.883630	-1.534560
-3.487180	5.895090	-1.536150
-3.492840	5.904670	-1.537240
-3.495520	5.909230	-1.537020
-3.495890	5.909890	-1.535790
-3.496470	5.910880	-1.534640
-3.496200	5.910460	-1.533130
-3.496880	5.911640	-1.532030
-3.496450	5.910930	-1.530440
-3.496220	5.910570	-1.528940
-3.496510	5.911090	-1.527670
-3.496180	5.910560	-1.526130
-3.496810	5.911650	-1.525010
-3.498190	5.914010	-1.524210
-3.498510	5.914570	-1.522950
-3.472640	5.871740	-1.605390
-3.471690	5.870160	-1.603560
-3.468810	5.865310	-1.600830
-3.467480	5.863090	-1.598830
-3.466460	5.861390	-1.596960
-3.465690	5.860120	-1.595220
-3.464800	5.858640	-1.593420
-3.464490	5.858130	-1.591880
-3.463590	5.856640	-1.590070
-3.463020	5.855700	-1.588420
-3.462590	5.855000	-1.586830
-3.462380	5.854670	-1.585340
-3.461990	5.854040	-1.583770
-3.461630	5.853470	-1.582220
-3.461350	5.853000	-1.580690
-3.461290	5.852930	-1.579280
-3.461060	5.852570	-1.577790
-3.460930	5.852380	-1.576340
-3.460810	5.852200	-1.574890
-3.460810	5.852240	-1.573510
-3.460680	5.852040	-1.572060
-3.460660	5.852020	-1.570660
-3.460710	5.852130	-1.569290
-3.460750	5.852240	-1.567930
-3.460800	5.852350	-1.566560
-3.460720	5.852230	-1.565130
-3.461060	5.852840	-1.563900
-3.461170	5.853050	-1.562560
-3.461510	5.853660	-1.561330
-3.461500	5.853660	-1.559930
-3.461710	5.854030	-1.558630
-3.462040	5.854620	-1.557390
-3.462350	5.855170	-1.556140
-3.462560	5.855550	-1.554850
-3.463090	5.856470	-1.553700
-3.463080	5.856490	-1.552300
-3.463520	5.857260	-1.551110
-3.464250	5.858520	-1.550050
-3.464620	5.859160	-1.548830
-3.464850	5.859590	-1.547540
-3.466040	5.861650	-1.545300
-3.466490	5.862430	-1.544110
-3.467360	5.863930	-1.543110
-3.468120	5.865240	-1.542050
-3.469020	5.866800	-1.541070
-3.469500	5.867630	-1.539890
-3.470460	5.869280	-1.538930
-3.471430	5.870940	-1.537970
-3.472580	5.872910	-1.537090
-3.473940	5.875230	-1.536300
-3.476130	5.878970	-1.535880
-3.479600	5.884860	-1.536020
-3.486470	5.896500	-1.537650
-3.491520	5.905070	-1.538480
-3.494220	5.909660	-1.538270
-3.494790	5.910650	-1.537120
-3.495160	5.911290	-1.535890
-3.495600	5.912080	-1.534680
-3.495780	5.912410	-1.533360
-3.495140	5.911350	-1.531680
-3.495620	5.912190	-1.530500
-3.495060	5.911270	-1.528850
-3.495180	5.911490	-1.527510
-3.495700	5.912390	-1.526330
-3.495900	5.912760	-1.525020
-3.497350	5.915240	-1.524260
-3.497180	5.914980	-1.522790
-3.482810	5.891530	-1.610370
-3.476980	5.881700	-1.606280
-3.470110	5.870110	-1.601710
-3.467520	5.865750	-1.599120
-3.466210	5.863570	-1.597130
-3.465400	5.862220	-1.595360
-3.464630	5.860940	-1.593610
-3.463600	5.859230	-1.591750
-3.463320	5.858770	-1.590220
-3.463000	5.858260	-1.588680
-3.462060	5.856690	-1.586860
-3.462090	5.856780	-1.585490
-3.461460	5.855740	-1.583810
-3.461270	5.855440	-1.582330
-3.460880	5.854810	-1.580760
-3.461050	5.855120	-1.579450
-3.460540	5.854280	-1.577820
-3.460510	5.854260	-1.576420
-3.460410	5.854120	-1.574990
-3.460260	5.853890	-1.573530
-3.460470	5.854270	-1.572230
-3.460220	5.853870	-1.570730
-3.460190	5.853850	-1.569320
-3.460050	5.853640	-1.567870
-3.460360	5.854190	-1.566620
-3.460560	5.854550	-1.565320
-3.460540	5.854560	-1.563930
-3.460770	5.854960	-1.562640
-3.460970	5.855330	-1.561340
-3.461080	5.855540	-1.560000
-3.461370	5.856060	-1.558740
-3.461580	5.856440	-1.557450
-3.461560	5.856430	-1.556050
-3.462240	5.857600	-1.554960
-3.462630	5.858290	-1.553750
-3.462850	5.858690	-1.552460
-3.463170	5.859260	-1.551210
-3.463630	5.860070	-1.550030
-3.464270	5.861160	-1.548920
-3.464740	5.861990	-1.547740
-3.465190	5.862770	-1.546550
-3.465780	5.863800	-1.545430
-3.466410	5.864890	-1.544320
-3.467100	5.866080	-1.543240
-3.467760	5.867230	-1.542150
-3.468490	5.868490	-1.541080
-3.469630	5.870450	-1.540200
-3.470890	5.872600	-1.539370
-3.471820	5.874200	-1.538390
-3.473240	5.876630	-1.537630
-3.474910	5.879490	-1.536980
-3.479280	5.886910	-1.537520
-3.486290	5.898780	-1.539210
-3.491560	5.907730	-1.540140
-3.493310	5.910710	-1.539510
-3.494080	5.912040	-1.538450
-3.494320	5.912480	-1.537160
-3.494490	5.912780	-1.535840
-3.494720	5.913190	-1.534540
-3.494640	5.913090	-1.533100
-3.494740	5.913280	-1.531750
-3.494570	5.913020	-1.530270
-3.494920	5.913640	-1.529030
-3.494290	5.912600	-1.527360
-3.494340	5.912710	-1.525980
-3.495100	5.914020	-1.524910
-3.497030	5.917320	-1.524360
-3.495410	5.914600	-1.522250
-3.489070	5.904800	-1.613550
-3.486410	5.900330	-1.610920
-3.476170	5.883030	-1.604790
-3.469560	5.871880	-1.600350
-3.466650	5.866980	-1.597610
-3.465380	5.864870	-1.595630
-3.464460	5.863340	-1.593820
-3.463720	5.862120	-1.592080
-3.463130	5.861140	-1.590420
-3.462360	5.859870	-1.588670
-3.461980	5.859250	-1.587110
-3.461600	5.858640	-1.585540
-3.461080	5.857790	-1.583920
-3.460800	5.857340	-1.582400
-3.460680	5.857170	-1.580950
-3.460330	5.856590	-1.579400
-3.460150	5.856320	-1.577930
-3.459930	5.855970	-1.576440
-3.460150	5.856360	-1.575140
-3.460060	5.856230	-1.573710
-3.459920	5.856030	-1.572260
-3.459780	5.855810	-1.570800
-3.459680	5.855650	-1.569370
-3.459670	5.855660	-1.567970
-3.459900	5.856080	-1.566690
-3.460090	5.856430	-1.565380
-3.460370	5.856920	-1.564120
-3.460320	5.856860	-1.562710
-3.460310	5.856870	-1.561310
-3.460950	5.857980	-1.560210
-3.460980	5.858070	-1.558840
-3.461400	5.858810	-1.557640
-3.461400	5.858830	-1.556250
-3.461850	5.859620	-1.555060
-3.462140	5.860130	-1.553800
-3.462710	5.861120	-1.552660
-3.462870	5.861420	-1.551350
-3.463180	5.861970	-1.550100
-3.463850	5.863130	-1.549010
-3.464520	5.864290	-1.547920
-3.464930	5.865000	-1.546710
-3.465790	5.866490	-1.545710
-3.466430	5.867600	-1.544600
-3.467350	5.869180	-1.543620
-3.468070	5.870430	-1.542560
-3.468810	5.871710	-1.541500
-3.470040	5.873810	-1.540650
-3.470980	5.875430	-1.539680
-3.472560	5.878130	-1.538980
-3.475050	5.882370	-1.538690
-3.480450	5.891540	-1.539690
-3.486700	5.902140	-1.541060
-3.490540	5.908660	-1.541350
-3.492990	5.912830	-1.541030
-3.493180	5.913190	-1.539720
-3.493190	5.913220	-1.538320
-3.493750	5.914200	-1.537170
-3.493390	5.913610	-1.535610
-3.493590	5.913980	-1.534300
-3.493790	5.914350	-1.532990
-3.493900	5.914550	-1.531640
-3.493480	5.913870	-1.530050
-3.493370	5.913720	-1.528610
-3.493490	5.913940	-1.527260
-3.493820	5.914530	-1.526010
-3.494570	5.915830	-1.524940
-3.496020	5.918310	-1.524170
-3.493580	5.914200	-1.521710
-3.491780	5.912040	-1.614840
-3.489060	5.907460	-1.612180
-3.482230	5.895940	-1.607620
-3.472860	5.880090	-1.601900
-3.467860	5.871660	-1.598200
-3.465570	5.867810	-1.595750
-3.464120	5.865380	-1.593680
-3.463240	5.863920	-1.591890
-3.462750	5.863120	-1.590270
-3.462410	5.862570	-1.588720
-3.461610	5.861240	-1.586960
-3.461180	5.860550	-1.585370
-3.460840	5.859990	-1.583830
-3.460510	5.859450	-1.582280
-3.460230	5.859010	-1.580760
-3.460100	5.858820	-1.579320
-3.459940	5.858570	-1.577850
-3.459560	5.857950	-1.576290
-3.459610	5.858060	-1.574920
-3.459460	5.857840	-1.573460
-3.459430	5.857820	-1.572060
-3.459540	5.858020	-1.570720
-3.459300	5.857640	-1.569220
-3.459410	5.857850	-1.567880
-3.459390	5.857860	-1.566490
-3.459870	5.858680	-1.565310
-3.459930	5.858810	-1.563950
-3.459820	5.858650	-1.562510
-3.460120	5.859200	-1.561260
-3.460450	5.859780	-1.560020
-3.460510	5.859900	-1.558650
-3.460720	5.860280	-1.557360
-3.461160	5.861050	-1.556170
-3.461710	5.862010	-1.555020
-3.461870	5.862310	-1.553710
-3.462250	5.862980	-1.552490
-3.462770	5.863880	-1.551330
-3.463470	5.865090	-1.550250
-3.463790	5.865660	-1.549010
-3.464420	5.866750	-1.547900
-3.464940	5.867670	-1.546740
-3.465630	5.868870	-1.545660
-3.466440	5.870250	-1.544630
-3.467240	5.871640	-1.543600
-3.468350	5.873540	-1.542700
-3.469380	5.875300	-1.541760
-3.470410	5.877090	-1.540830
-3.472380	5.880430	-1.540310
-3.476040	5.886670	-1.540540
-3.481780	5.896410	-1.541690
-3.487990	5.906960	-1.543040
-3.490180	5.910690	-1.542610
-3.491970	5.913740	-1.542000
-3.492340	5.914400	-1.540770
-3.492770	5.915150	-1.539550
-3.492470	5.914670	-1.538030
-3.492170	5.914180	-1.536490
-3.492620	5.914980	-1.535290
-3.492370	5.914570	-1.533780
-3.492430	5.914700	-1.532410
-3.492930	5.915580	-1.531230
-3.492570	5.915000	-1.529670
-3.492560	5.915010	-1.528270
-3.492400	5.914750	-1.526800
-3.492690	5.915270	-1.525520
-3.493400	5.916500	-1.524430
-3.495340	5.919810	-1.523880
-3.491690	5.914580	-1.615190
-3.488290	5.908880	-1.610810
-3.481050	5.896640	-1.606070
-3.472770	5.882650	-1.600860
-3.467530	5.873800	-1.597050
-3.465050	5.869620	-1.594510
-3.463740	5.867440	-1.592520
-3.462570	5.865490	-1.590590
-3.462080	5.864670	-1.588970
-3.461610	5.863910	-1.587360
-3.460980	5.862860	-1.585680
-3.460600	5.862240	-1.584110
-3.460140	5.861500	-1.582510
-3.459820	5.860980	-1.580970
-3.459910	5.861170	-1.579620
-3.459630	5.860710	-1.578100
-3.459400	5.860360	-1.576610
-3.459180	5.860000	-1.575110
-3.459120	5.859920	-1.573700
-3.459160	5.860020	-1.572330
-3.459230	5.860160	-1.570970
-3.458950	5.859720	-1.569450
-3.458930	5.859710	-1.568050
-3.459300	5.860360	-1.566830
-3.459500	5.860730	-1.565530
-3.459410	5.860600	-1.564090
-3.459960	5.861550	-1.562950
-3.459890	5.861470	-1.561530
-3.460010	5.861700	-1.560200
-3.460460	5.862480	-1.559010
-3.460610	5.862770	-1.557690
-3.460870	5.863230	-1.556410
-3.461200	5.863810	-1.555170
-3.461780	5.864830	-1.554040
-3.462040	5.865300	-1.552770
-3.462660	5.866360	-1.551650
-3.463120	5.867180	-1.550470
-3.463800	5.868350	-1.549380
-3.464250	5.869140	-1.548200
-3.464970	5.870380	-1.547130
-3.465730	5.871710	-1.546080
-3.466760	5.873480	-1.545140
-3.467630	5.874970	-1.544140
-3.468460	5.876400	-1.543120
-3.469970	5.878990	-1.542400
-3.472580	5.883440	-1.542170
-3.476810	5.890620	-1.542650
-3.483140	5.901380	-1.544060
-3.487950	5.909540	-1.544790
-3.490100	5.913210	-1.544340
-3.491280	5.915240	-1.543470
-3.491100	5.914960	-1.541990
-3.491600	5.915820	-1.540800
-3.491210	5.915200	-1.539240
-3.491670	5.916000	-1.538040
-3.491180	5.915210	-1.536420
-3.491560	5.915870	-1.535190
-3.491920	5.916510	-1.533950
-3.492050	5.916750	-1.532610
-3.491930	5.916580	-1.531160
-3.491270	5.915480	-1.529470
-3.491520	5.915940	-1.528180
-3.491520	5.915960	-1.526780
-3.491630	5.916180	-1.525430
-3.493070	5.918630	-1.524650
-3.494680	5.921390	-1.523960
-3.485620	5.906860	-1.614020
-3.490960	5.915930	-1.615080
-3.490760	5.915630	-1.613580
-3.489820	5.914050	-1.611740
-3.487480	5.910110	-1.609260
-3.481570	5.900130	-1.605130
-3.474000	5.887330	-1.600240
-3.468130	5.877420	-1.596150
-3.465190	5.872470	-1.593400
-3.463310	5.869310	-1.591140
-3.462560	5.868050	-1.589400
-3.461550	5.866360	-1.587540
-3.461150	5.865720	-1.585970
-3.460690	5.864960	-1.584360
-3.460430	5.864550	-1.582850
-3.460020	5.863880	-1.581270
-3.459940	5.863770	-1.579840
-3.459330	5.862770	-1.578180
-3.459450	5.862990	-1.576840
-3.458930	5.862150	-1.575210
-3.459040	5.862350	-1.573870
-3.458990	5.862290	-1.572450
-3.458680	5.861790	-1.570920
-3.458870	5.862140	-1.569610
-3.459020	5.862420	-1.568290
-3.459040	5.862480	-1.566910
-3.459100	5.862610	-1.565540
-3.459310	5.863000	-1.564250
-3.459510	5.863360	-1.562950
-3.459680	5.863680	-1.561630
-3.460010	5.864260	-1.560390
-3.460030	5.864330	-1.559010
-3.460380	5.864940	-1.557780
-3.461070	5.866130	-1.556690
-3.461170	5.866340	-1.555350
-3.461700	5.867260	-1.554200
-3.462090	5.867940	-1.552980
-3.462520	5.868700	-1.551790
-3.463150	5.869790	-1.550680
-3.464000	5.871250	-1.549670
-3.464430	5.872010	-1.548470
-3.465420	5.873720	-1.547520
-3.466060	5.874830	-1.546410
-3.467040	5.876510	-1.545460
-3.468500	5.879020	-1.544720
-3.470350	5.882180	-1.544150
-3.473940	5.888290	-1.544350
-3.479960	5.898510	-1.545630
-3.484990	5.907070	-1.546460
-3.488380	5.912840	-1.546560
-3.490310	5.916150	-1.544620
-3.490020	5.915690	-1.543090
-3.490500	5.916530	-1.541900
-3.490660	5.916820	-1.540570
-3.490610	5.916780	-1.539150
-3.491250	5.917880	-1.538030
-3.491140	5.917730	-1.536580
-3.490740	5.917070	-1.535010
-3.491070	5.917650	-1.533750
-3.490840	5.917290	-1.532250
-3.490420	5.916610	-1.530670
-3.491060	5.917710	-1.529550
-3.490150	5.916200	-1.527750
-3.490990	5.917660	-1.526720
-3.490590	5.917000	-1.525150
-3.491890	5.919220	-1.524310
-3.494160	5.923100	-1.523910
-3.489880	5.916800	-1.615140
-3.490150	5.917280	-1.613850
-3.490120	5.917260	-1.612430
-3.488730	5.914920	-1.610380
-3.486930	5.911910	-1.608150
-3.483760	5.906550	-1.605280
-3.476860	5.894880	-1.600700
-3.469670	5.882730	-1.596000
-3.465280	5.875310	-1.592580
-3.463540	5.872390	-1.590390
-3.462380	5.870450	-1.588460
-3.461360	5.868740	-1.586600
-3.460870	5.867940	-1.584980
-3.460190	5.866820	-1.583280
-3.459500	5.865660	-1.581570
-3.459810	5.866210	-1.580320
-3.459480	5.865690	-1.578770
-3.459110	5.865090	-1.577210
-3.458980	5.864890	-1.575760
-3.458700	5.864440	-1.574240
-3.458700	5.864480	-1.572850
-3.458840	5.864740	-1.571520
-3.458680	5.864490	-1.570060
-3.458990	5.865050	-1.568810
-3.458950	5.865000	-1.567400
-3.459000	5.865110	-1.566030
-3.459280	5.865600	-1.564770
-3.459520	5.866050	-1.563490
-3.459690	5.866350	-1.562170
-3.459840	5.866640	-1.560850
-3.460230	5.867320	-1.559630
-3.460340	5.867540	-1.558290
-3.460860	5.868450	-1.557140
-3.461170	5.868990	-1.555880
-3.461700	5.869920	-1.554730
-3.461900	5.870290	-1.553430
-3.462540	5.871400	-1.552320
-3.463180	5.872510	-1.551220
-3.463680	5.873380	-1.550050
-3.464620	5.875000	-1.549070
-3.465610	5.876720	-1.548130
-3.466780	5.878720	-1.547250
-3.468320	5.881360	-1.546550
-3.471090	5.886080	-1.546390
-3.475200	5.893060	-1.546820
-3.481350	5.903520	-1.548160
-3.485650	5.910840	-1.548670
-3.488030	5.914910	-1.548330
-3.489080	5.916710	-1.547400
-3.489700	5.917820	-1.544870
-3.490050	5.918430	-1.543620
-3.489360	5.917290	-1.541920
-3.489540	5.917610	-1.540600
-3.489750	5.917990	-1.539290
-3.489830	5.918160	-1.537930
-3.489760	5.918060	-1.536500
-3.489510	5.917670	-1.534990
-3.490160	5.918790	-1.533870
-3.489900	5.918390	-1.532360
-3.489600	5.917900	-1.530830
-3.489360	5.917530	-1.529330
-3.489660	5.918070	-1.528060
-3.489280	5.917440	-1.526500
-3.489990	5.918660	-1.525400
-3.491690	5.921590	-1.524750
-3.493710	5.925030	-1.524230
-3.483040	5.907910	-1.613610
-3.488400	5.917010	-1.614680
-3.489160	5.918330	-1.613620
-3.488780	5.917710	-1.612040
-3.488060	5.916520	-1.610300
-3.488180	5.916750	-1.608950
-3.486720	5.914310	-1.606880
-3.484580	5.910690	-1.604480
-3.479350	5.901850	-1.600680
-3.471600	5.888750	-1.595720
-3.466650	5.880380	-1.592050
-3.464110	5.876090	-1.589480
-3.462350	5.873140	-1.587280
-3.461340	5.871440	-1.585420
-3.460550	5.870130	-1.583670
-3.460210	5.869590	-1.582120
-3.459860	5.869020	-1.580570
-3.459470	5.868390	-1.579000
-3.459150	5.867860	-1.577460
-3.459080	5.867770	-1.576040
-3.458880	5.867460	-1.574550
-3.458640	5.867080	-1.573050
-3.458710	5.867220	-1.571690
-3.458850	5.867490	-1.570360
-3.459030	5.867820	-1.569050
-3.458940	5.867690	-1.567610
-3.459200	5.868150	-1.566340
-3.459320	5.868380	-1.565000
-3.459410	5.868560	-1.563650
-3.459440	5.868650	-1.562270
-3.459860	5.869390	-1.561070
-3.460170	5.869940	-1.559820
-3.460430	5.870390	-1.558540
-3.460890	5.871200	-1.557360
-3.461210	5.871780	-1.556110
-3.461660	5.872560	-1.554920
-3.462580	5.874150	-1.553940
-3.463170	5.875170	-1.552820
-3.463510	5.875780	-1.551580
-3.464560	5.877600	-1.550660
-3.465810	5.879730	-1.549820
-3.467650	5.882880	-1.549250
-3.469490	5.886030	-1.548680
-3.473460	5.892790	-1.549050
-3.479020	5.902240	-1.550130
-3.483240	5.909440	-1.550620
-3.486410	5.914840	-1.550630
-3.488050	5.917640	-1.549950
-3.488430	5.918320	-1.548720
-3.488500	5.918450	-1.547350
-3.488720	5.918860	-1.546050
-3.488270	5.918130	-1.544450
-3.488590	5.918680	-1.543190
-3.488710	5.918910	-1.541840
-3.488400	5.918420	-1.540300
-3.488650	5.918870	-1.539020
-3.488360	5.918400	-1.537490
-3.488580	5.918810	-1.536190
-3.488750	5.919120	-1.534860
-3.488510	5.918740	-1.533360
-3.488370	5.918530	-1.531900
-3.488430	5.918650	-1.530530
-3.488750	5.919230	-1.529270
-3.488780	5.919300	-1.527880
-3.488850	5.919450	-1.526510
-3.488890	5.919540	-1.525130
-3.490880	5.922940	-1.524600
-3.492980	5.926530	-1.524110
-3.487770	5.918670	-1.615500
-3.488650	5.920180	-1.614490
-3.487710	5.918620	-1.612650
-3.487740	5.918700	-1.611270
-3.487490	5.918290	-1.609740
-3.487740	5.918750	-1.608450
-3.487370	5.918150	-1.606880
-3.486430	5.916590	-1.605040
-3.484280	5.912950	-1.602650
-3.474480	5.896380	-1.595340
-3.469350	5.887710	-1.591590
-3.464910	5.880190	-1.588160
-3.462940	5.876880	-1.585860
-3.461660	5.874730	-1.583880
-3.460830	5.873360	-1.582110
-3.459950	5.871890	-1.580320
-3.459940	5.871890	-1.578920
-3.459480	5.871150	-1.577320
-3.459210	5.870720	-1.575800
-3.459090	5.870530	-1.574350
-3.458950	5.870330	-1.572900
-3.459000	5.870430	-1.571530
-3.459110	5.870650	-1.570190
-3.458920	5.870350	-1.568710
-3.459240	5.870910	-1.567460
-3.459330	5.871090	-1.566110
-3.459180	5.870870	-1.564660
-3.459790	5.871940	-1.563540
-3.460050	5.872400	-1.562270
-3.460210	5.872690	-1.560950
-3.460720	5.873590	-1.559790
-3.461400	5.874760	-1.558700
-3.461290	5.874620	-1.557260
-3.462170	5.876120	-1.556260
-3.462730	5.877100	-1.555120
-3.463690	5.878760	-1.554160
-3.464720	5.880540	-1.553230
-3.465900	5.882570	-1.552370
-3.467700	5.885640	-1.551780
-3.471900	5.892800	-1.552260
-3.476060	5.899880	-1.552730
-3.479860	5.906350	-1.553020
-3.483800	5.913070	-1.553380
-3.485270	5.915590	-1.552640
-3.486420	5.917570	-1.551750
-3.487280	5.919050	-1.550730
-3.487370	5.919230	-1.549370
-3.487660	5.919750	-1.548100
-3.487700	5.919840	-1.546720
-3.487650	5.919780	-1.545300
-3.487870	5.920180	-1.543990
-3.487550	5.919670	-1.542450
-3.487730	5.920000	-1.541130
-3.488140	5.920720	-1.539910
-3.488060	5.920620	-1.538480
-3.487850	5.920280	-1.536990
-3.487860	5.920330	-1.535590
-3.487470	5.919690	-1.534020
-3.487930	5.920500	-1.532830
-3.487930	5.920520	-1.531430
-3.487880	5.920460	-1.530010
-3.487990	5.920670	-1.528660
-3.487650	5.920120	-1.527110
-3.487600	5.920070	-1.525690
-3.488800	5.922130	-1.524820
-3.490820	5.925590	-1.524300
-3.494910	5.932560	-1.524680
-3.485000	5.916650	-1.615490
-3.486770	5.919680	-1.614900
-3.487490	5.920920	-1.613820
-3.487040	5.920190	-1.612210
-3.487280	5.920620	-1.610910
-3.487150	5.920430	-1.609450
-3.486970	5.920140	-1.607960
-3.486550	5.919460	-1.606360
-3.486140	5.918790	-1.604760
-3.485430	5.917620	-1.603030
-3.484570	5.916170	-1.601230
-3.481400	5.910820	-1.598370
-3.476700	5.902880	-1.594820
-3.471480	5.894040	-1.591020
-3.467940	5.888060	-1.588000
-3.464860	5.882860	-1.585200
-3.462710	5.879230	-1.582820
-3.461490	5.877190	-1.580870
-3.460480	5.875500	-1.579010
-3.460300	5.875220	-1.577540
